//X,Y,Z
989860,904423,70783
1720414,588272,73798
1339502,555936,72140
1654799,1027891,69506
1390542,830259,88443
1178523,998709,194405
1181320,665239,69378
1673399,981800,70673
1160178,1034714,70150
1471062,676870,72413
1161312,736823,68125
1128398,1135459,61138
1563997,919718,69614
924539,1225019,78175
1308919,486565,95095
413652,967310,60705
2321383,37692,115580
1941786,437279,95709
1541727,360178,84787
611210,752433,61107
786434,835061,61833
1211267,952641,156324
2004683,633352,74436
738313,1159962,70479
2235673,315828,136372
1014126,547320,68715
1605809,925523,69491
1660643,401495,82481
1555548,368916,84622
1387541,698903,71878
1207064,794092,67809
1091200,949192,71233
2440694,348384,78440
1980770,686936,77307
1455261,379958,72728
378807,789432,61476
2340977,599063,123554
1227857,734498,69061
1218346,800764,67829
979955,561692,67402
2244794,720829,120265
2414386,278715,78894
1145673,555114,70044
1218331,1014217,168456
863946,1060135,71019
1533766,758970,70499
528307,1326059,61336
1089513,830654,70358
2491401,444924,116851
2264535,651961,90210
1308373,544821,99680
842703,1163396,74178
1093127,608355,68711
2417570,738872,122687
1991134,274375,77559
2308924,495966,77075
1070721,1007415,70716
1557680,766750,75289
1337623,1097571,72300
389700,1377034,60753
1558628,776573,70354
2391645,125550,121788
423828,945987,60577
1762148,616514,73257
534734,1027366,70198
1268935,454690,98460
1628222,312123,74274
1987190,250671,114479
859690,1177590,69870
2393256,642640,105229
1927150,712342,72547
956955,952691,71074
2357206,126971,79414
993281,999747,70901
2432752,60046,125395
1107075,772098,81067
518479,1308334,61144
1857348,309285,75841
1346268,813759,70005
2229448,420144,141966
2238988,208473,78407
2478621,128129,109951
1599503,747601,70904
1385273,662413,71986
2212200,207746,78622
623888,1374127,60949
665180,1200359,183451
2222378,639002,110809
1162776,1048871,70024
2324101,737875,101018
2349787,74550,123376
920857,1079406,70554
1770355,579515,73585
2519922,693652,61314
2479347,619537,72821
2311381,721722,75783
2347633,701416,76411
2519479,428461,112043
912192,1127391,70179
2337084,435414,76574
1426848,492009,72618
986774,893049,70547
2132167,749151,106033
2218218,460570,142891
1399552,818662,99185
1218010,1049458,83430
834487,926767,70426
849111,1026453,71331
1025651,663582,78116
1313825,687908,80315
1289981,457728,98244
1334497,945725,68640
680784,785250,61268
1506903,639937,71446
1074386,515129,69393
2074009,829744,73732
1727028,536607,78066
2441717,409618,78039
1384370,884349,69831
1029951,725463,60992
1957955,227562,87794
866078,886477,70054
1540950,945257,72249
293947,1387114,61583
1456951,1058588,68947
2412545,739524,123589
534118,1256573,75343
2367929,332731,71121
1358242,739310,71323
2212799,605322,74178
1184769,868266,74118
2394742,742861,78247
2168214,366079,76695
1095531,802065,70301
564606,1061267,70400
1244247,704662,69517
2382340,385250,62733
1063122,621617,79038
2228619,774058,110477
2050015,821301,73771
1737688,390271,83181
2250485,62955,61297
1568805,1059202,69360
570773,1202978,69991
1321792,826734,69693
2395602,336446,59083
810654,941853,74401
1145236,991534,70646
1052901,1043960,70515
2101484,205340,76741
915096,1156530,69914
394218,1193792,61330
1123966,816535,79568
1090200,1019272,70556
812294,1008916,71100
882455,1160294,69959
2166768,822083,95455
1590972,800004,74314
2173350,305341,141658
2064312,420019,76494
1999176,352199,87884
1638622,622357,81906
424069,1336045,61397
2293525,456554,76550
1498838,877043,71313
2492258,423717,115222
1368242,582096,81497
1431891,967119,69845
294703,1015539,60835
2461167,42507,112399
809018,993777,70912
364817,1096404,60894
1140974,522920,70281
2515682,645905,79295
1863281,363985,74985
2317701,440277,76292
1062636,639230,68181
2349582,440934,76783
881622,1237805,77650
2141659,725532,108136
1573955,616947,76289
1022074,982182,71110
2315383,208535,59894
870861,1022161,71384
1971378,513079,75042
1414125,1005065,69410
1419486,800165,71271
2312164,420762,89628
943476,963521,71198
587595,1184262,70182
2334202,516401,118386
598809,861415,60693
1824914,719477,72583
2374726,726364,98239
724242,915686,69957
1688545,266072,81978
342718,982331,61347
383424,954308,61416
2349266,647850,110521
1284669,919990,68176
1873677,657292,72763
1230538,833861,67949
1801510,390066,75884
1617656,385324,93001
2217615,764063,120011
2355196,189475,79289
1027065,873748,70589
1524617,928515,71287
986528,1203274,78401
1221261,443885,71726
1197000,926080,71232
1099174,950226,71253
2404874,549618,59004
1900770,926322,91592
1141519,716675,68434
1789018,811254,87926
2307576,637012,79491
1214689,1039335,232060
2075864,436553,76362
2205130,514980,75827
1392534,1128967,68551
1960172,417281,115703
510786,1330618,61413
1115585,748077,69539
2485497,548806,107776
2283664,334023,100933
327237,1149344,60897
1549721,1045668,69682
1631296,669210,72704
1287960,1155122,74593
700920,672003,60904
2250488,598310,94646
580365,1275155,69721
1827891,409890,76309
2116294,173090,77447
2300442,568420,112281
1250293,937076,70003
2222799,663485,112798
832435,1289670,61775
874164,1230021,77626
226362,953003,61625
1622705,785308,70451
1972570,317697,79275
555803,1238275,61738
1615320,383595,74033
1558676,942727,74372
788684,889879,69917
2300383,634881,74096
2210289,201467,83918
997367,1031294,70740
1208230,1037883,70009
2266966,203247,81711
1178940,740984,68203
551595,1028792,70340
2501344,641924,60466
613866,1151227,70507
2077480,607194,86323
2276854,419174,140018
1263480,742642,69488
649708,1000729,70485
530700,1135509,69849
1891622,539543,74981
868990,1021250,71348
2441630,424253,78145
1474155,742776,71198
1368268,461134,71770
2255999,155802,61061
577748,1427837,61094
1913952,323266,110506
1107218,834950,70514
1267771,745526,69556
1651893,489832,74164
2169389,396476,76318
1571817,525233,84310
2180498,632912,89353
1830724,956408,72763
2326643,650314,120128
1413687,693710,79125
908471,933016,70432
2098511,833246,96187
1668788,777506,77872
1043465,865486,70548
613751,1161088,70375
1049178,615605,79015
2474659,212123,119128
932932,963944,71162
494122,1041597,71085
775409,1016122,70870
2060570,470819,75203
1152718,723988,68329
2197884,682609,119140
2029737,193902,124125
2067368,587563,74587
2239581,764426,102935
2319049,742757,97340
943234,1132457,74200
1870079,208204,117246
2179736,389250,116253
2051480,542772,117086
1994728,671758,83423
2212329,74476,80300
2113561,715966,105646
2297382,670089,120640
1297394,1025531,68594
2110221,531524,118803
1339727,636944,71728
643002,1080857,70963
2143415,348229,76429
2223419,69087,62006
1551336,782417,70604
473137,1380289,61610
2131712,394712,76667
2474591,209784,125788
1993087,231953,114164
1546499,913514,69906
1355102,560619,72486
1412697,947458,79074
1394929,673203,71989
1856836,908155,71679
2421779,506527,58355
2305105,371343,77032
1670550,872763,75882
2211125,667989,96098
2287153,140258,60568
2191320,712102,119691
306054,1087762,61644
1225642,486209,72003
1358693,988913,72056
1197693,614621,74199
1312560,1159649,70917
2230496,521528,121210
613797,1154626,70458
1027123,907804,79931
1043867,1085066,74787
2460195,666797,60147
1777161,456839,77251
893292,1243178,78038
343705,1078356,61671
907928,1210801,77509
911580,836658,69761
2477037,257112,79188
1837094,792639,72110
825502,959692,70599
1654644,557183,82744
1759539,459010,77972
1681358,758823,71321
2470932,697553,60742
2499664,306947,120062
728752,957248,70327
2236232,459838,76929
1209465,722255,68881
1539409,640162,71851
1871996,656951,74815
2513807,118330,120258
2497308,135078,106662
1767279,540112,74249
442648,1244941,61077
2227424,754018,113400
1354205,683633,71744
653526,1130051,70984
1523786,617461,77976
2018010,587478,74110
124369,988135,61596
1235273,1035186,203176
1764739,254913,90808
1111268,1050336,70179
2247365,249087,87664
1983800,629665,73771
390833,1363762,60927
852144,1058961,70986
2328853,352917,59208
1074763,579063,68695
2145597,824771,107533
461372,1188826,75227
2417119,415022,77991
2028160,843394,73511
1212240,1052514,196366
1586640,641922,77521
716977,1075829,71283
2268953,356299,93303
1132907,1048141,70124
313494,784956,61626
1283039,1062112,71773
1179074,1002444,197692
830471,1104772,70739
2157729,799702,106059
1307753,922168,68400
2225194,747402,112751
2178480,275021,141434
770142,784387,61925
1700323,502262,75732
2306093,91252,61783
1496003,617120,76024
1380396,963752,69119
2255059,59889,64163
2233112,739212,75824
860214,1172950,69870
1928216,778533,83466
741609,907517,69945
2470150,682197,60422
1978438,252326,90429
229424,967676,61617
1132708,1047656,70140
1070227,1173928,77969
2491451,386513,80898
2501650,296131,115249
2056628,448091,83061
1005472,869505,70458
1327479,1126751,68970
412416,907608,324320
1434327,1117648,67980
1220246,482027,73453
595913,1274818,69938
1345563,1144360,69694
923586,1126659,70145
1273835,498671,95049
996382,1187645,77859
1757531,721079,73943
784351,1078238,71058
2401052,172375,123991
1815669,899306,71189
2395577,678101,77021
2345123,273962,59420
2194431,417887,77108
705871,890469,61027
2407194,22738,90138
2103952,531960,126114
1632851,661880,72803
1537122,732143,73051
2315736,545526,148457
1592988,822026,69747
1187763,977327,185071
1176662,924956,168449
807011,1105332,70725
1520204,598496,74035
2281266,46392,61968
1269349,457778,98303
2124459,613368,112413
2052535,219921,113994
1659003,877837,69872
1102591,1071126,69707
1146203,544253,70283
2086276,807716,74294
2074497,530549,119726
1904936,517696,74366
1296265,597655,72089
1988943,522458,111686
1321221,1100265,68993
1800771,574426,83739
2255255,423432,140687
1772903,452762,77313
1080196,1074644,69877
1071382,983614,70974
1434717,1007399,72858
851471,671687,61093
1022690,724005,61495
1453841,736463,71626
1959482,784803,72423
754713,882992,61306
1492487,602776,90558
2335851,93045,82713
2016403,705962,98414
1521218,414816,84227
1551788,520060,73520
993663,556737,67797
1935291,237016,88146
2198898,648096,75969
1163916,909300,71383
2232565,797687,95928
2483634,422020,114437
2410963,2850,78337
673914,1048887,70959
2244159,493704,78652
1695021,961185,74250
1104753,1013640,70624
654839,860352,61418
1933851,302080,116377
524361,903566,61158
2443445,491604,58675
2200379,140525,79464
2227789,447193,141831
1848602,321907,80643
1501572,462726,72847
704541,1051772,71122
1163823,876116,72140
1845218,848895,71569
2210657,542452,120346
1784197,621559,81442
1268591,1077966,70481
894215,864147,70002
1042054,945186,71338
2348573,261500,59659
1158486,964321,70767
1515752,631193,71691
2297982,546399,126342
808321,1115237,70582
1634101,881385,69123
47269,952010,61394
952588,1218239,77806
1581447,749919,70686
1073393,741763,67400
805080,865624,61373
1211459,572894,73173
2353584,63026,122889
1220612,1049347,83618
2369548,588819,104166
1088519,923357,71304
1856075,576054,74874
279196,1126085,61089
1591843,347539,85354
1007661,822989,70164
1158471,939833,71120
526151,1382457,61402
2013881,554446,87336
1435639,695129,80734
1849184,761453,82331
1008128,1152815,77962
1079295,1103911,69876
1780056,770182,88094
1706624,653656,73239
588029,1364951,60964
1623635,487233,85145
389960,1473760,61504
400747,816359,61542
1552353,933429,70294
2084662,207677,79761
2190723,342055,141902
2276011,512823,76990
1160831,837911,70854
1228479,918182,69489
2224823,780479,110472
2227580,649097,105531
717664,1103070,71079
1524885,1026175,70059
1046387,810844,70078
1237913,598675,79203
1694801,868348,70767
2396851,520444,86600
1919361,320060,116997
2440030,273812,102271
2290187,304892,77775
2111952,579823,113275
1774756,575024,79610
2387140,313884,59671
2258914,207716,78848
1311096,615234,71558
1739961,702699,76420
1712079,884108,71020
2144354,781949,74978
2494434,355533,117402
2277695,158769,60463
856588,1328509,61281
1455341,625729,73565
1495507,893838,80948
1513039,1012026,70384
1004621,837867,70203
2238177,498517,81308
2231141,608560,107208
963492,1227495,77859
2114924,831657,103221
2006370,556830,84158
1199466,1060294,69812
2227183,333908,140988
2311473,761803,98676
2317920,565374,77555
1121055,710246,68432
631230,958576,69911
2513226,360756,102883
1490808,807643,70751
708216,1097797,71167
2064773,145630,76722
2253831,77370,61155
553652,953766,60971
815284,928480,70479
2284099,66025,61650
1506789,602434,90934
1056570,518424,68967
653854,951295,69967
1844258,864397,71304
1956789,768648,72384
2010544,181664,123586
2171458,790240,98238
1321917,623483,71542
2031986,417888,102529
383763,1433603,60977
2476825,23915,130312
590195,716954,61657
1408570,844832,70597
553680,1001676,70072
1149261,707990,68633
1595347,374698,85219
1747077,859491,70910
1861435,428186,75736
1349442,1134183,69729
265168,1121916,61239
571909,1197490,69983
1511638,1013474,70906
1970304,292035,81223
1369471,771149,71021
1278599,791185,69101
2285000,295434,77970
2127407,767927,108505
2282417,99481,61138
1827571,480896,75221
2226862,545637,119898
2254453,383409,139684
1785828,783371,71039
1330974,563370,72047
1509098,673022,71154
2242159,475375,76457
648362,1184578,184233
1315593,991359,68372
2194653,520359,102908
1495858,688822,77340
2423316,63179,126859
1983101,176065,103291
986689,558540,67463
1579056,1013432,69779
2037690,313659,82967
1294424,779625,69714
1443513,743297,72002
369910,1436609,61418
287957,831635,61543
1017903,879807,70557
178052,1006029,61283
1016913,962566,71309
2418122,468651,58253
1468142,836212,71465
2269451,477420,76364
434022,1293920,61283
2334346,430662,76533
1559718,657597,77114
2274489,667542,90335
1868174,607377,73554
2284328,337465,102753
1590542,545544,84354
1452955,702813,82271
2239209,774275,107033
1562923,415017,84831
1478927,711197,70941
751927,932740,70230
1970045,789274,72152
1054300,787723,69828
2164841,812334,105834
1938073,188165,79204
1187065,721802,68681
1968886,501898,86547
1483643,634427,82866
2229222,705047,119829
519127,992081,69914
2049226,171305,124991
2367128,535207,76477
931314,1149589,69943
1823686,768185,71706
1690552,342974,82221
459357,1171163,75249
2299321,613623,73809
1879924,737615,89821
382841,1442986,61582
2151542,827473,75017
2214042,532666,120741
2210976,261275,140447
1222506,733694,68832
2066396,478395,86279
992501,812196,69872
593695,1216311,70124
1555098,642038,81001
1426525,430430,71900
2185046,249135,141425
569881,764060,61775
1996692,798553,73616
1161474,1060898,70026
493281,982220,69610
2193605,794075,101405
2486446,357411,127328
2384414,413676,77601
2075972,781535,107032
1214390,519833,77289
898370,704070,61344
1647295,770070,71098
1313611,640602,71417
2177965,759549,124065
1472330,728912,71164
939350,1137727,69979
703791,1066976,71310
1945171,401977,116336
2495256,232344,104122
2199534,194129,78741
2365950,512808,76594
1928487,669651,73122
2226698,660418,111551
876242,680693,61146
1159472,691064,68911
2365357,429831,77342
1465466,515986,71984
2363874,306075,58958
1151480,853093,70715
2029432,873935,73997
1413973,925034,79208
2213723,769331,111823
2114034,425541,76750
1966127,856208,72818
1454685,813062,71500
2267723,158026,60867
1032523,974514,71191
2044100,870120,73245
2243352,616770,102356
489981,1059786,61623
2440063,155434,140841
1015548,966287,71351
2086184,194322,76730
172733,939353,61605
394855,1010063,61309
974914,1068767,70515
1316484,1069338,68961
2387326,241146,78413
1999734,241393,114043
845949,1163175,74030
305007,1424435,61416
257978,912951,61236
857271,979323,71139
1991400,391756,114591
536865,1022041,70225
958588,945322,80493
628236,943180,69725
1199615,842900,72875
768351,970982,70663
1100402,1066931,73692
1464453,869779,72338
1583808,497300,73947
2296443,772208,83908
358593,1168157,61388
2103390,513083,122781
1924701,522501,74070
1716804,349375,83053
2439350,334883,78658
371178,900395,61314
2450233,356628,78872
2428492,138349,120691
1972385,321521,76595
2472492,424042,116140
262552,1311032,61399
1859510,432860,75470
1759226,351466,75762
578260,797763,61314
1833903,557666,76541
2226931,410467,142091
1971217,286720,90408
1854268,807857,72195
1113784,688614,68658
2287433,478922,92411
1575217,677956,71902
2212570,546672,120169
2090896,639488,74689
1420580,667298,80536
2176940,214098,77925
2254380,794834,102592
1187524,797344,70453
1311147,885171,68886
1689373,844279,76265
2240061,285513,78788
1503957,471762,72666
1520649,546207,83478
643554,983122,70310
2306518,688631,121838
929726,885784,70334
1871624,714634,89919
2477696,69315,115169
2092010,744883,105472
1866299,685784,72985
2145542,500398,75842
2243671,545721,119477
2048436,768283,87523
1039245,652035,67752
2169227,554839,75479
1381917,835715,70339
1890913,600142,75343
1492143,1009630,82513
1072841,1030623,70578
2225443,711239,120475
2278344,719553,76099
2217476,207812,78689
1726924,621511,73643
2355113,650087,110860
2234997,289970,130074
2453117,78799,129388
2214236,431692,142899
1335115,678977,71505
1298153,1131341,71002
1906299,366913,83107
1605223,759692,70939
2181474,288005,141195
1646776,938934,68768
1403537,395623,72582
1177185,865011,71042
1933652,394141,117211
2372244,333653,58939
1006376,636159,77895
42877,957839,61181
2359132,469909,76604
1922523,473546,74762
1631169,494794,74277
1233131,911375,68910
927076,1083223,73120
1209615,628483,73161
1898619,836612,90051
1599023,734751,74769
1933833,448753,99247
783742,935755,70249
1629227,1030796,69346
2005750,263435,77370
848565,1188517,69882
1169349,759505,80509
2165205,459634,79180
2292854,466696,76407
2388734,193329,101223
1086088,877145,70847
1744583,803965,70902
1802708,382449,75830
506560,1114878,61698
2505883,396533,79315
1283758,1019508,69382
2236883,383464,140489
451758,877552,61387
2266860,405578,141262
1054326,664631,67810
1723546,759056,71257
1154696,981401,70716
236013,868977,61346
1157684,825068,71163
2156872,366833,76525
1893695,274226,115908
2341157,416840,76725
723940,918893,69875
1583430,525080,84514
1875264,704119,89792
1437538,949414,69916
2430430,538086,61128
1001164,1128662,69851
1225716,1186662,61292
1423101,929191,98311
2261916,342929,72157
184428,1033243,61515
1555381,428494,84256
1338549,1063452,67554
1048075,523685,78269
724193,892576,61265
2005525,277421,77368
1070427,850624,70581
2275392,509367,88781
2522722,449998,75854
1880383,651179,72636
751166,1339529,61150
399856,1014792,61482
1918108,774375,83515
1891750,938524,91452
1042455,1093325,74446
2146403,822854,75008
327118,915112,61802
2350508,35708,120314
374067,1064286,61399
956466,1074984,73095
1942091,316830,107460
1875556,476950,75448
1786611,804631,87914
843127,1088736,70732
1600434,715227,75714
1161057,771768,67652
716277,1385666,61327
2329936,432440,76456
2222747,662111,75163
2516839,73315,115366
2485799,230096,92425
773937,1199222,69917
1455159,645068,70959
2061760,354773,97318
2299080,96926,61356
1298219,489437,98433
1035906,518219,68883
2404170,12087,78154
934064,1190718,77679
1106985,833903,70563
1958188,327552,107562
1062576,1081784,70038
1718644,957144,70329
2391600,623678,106824
1295487,713367,76672
542550,1351971,61156
2021198,237307,113495
1924591,364411,86536
993823,534422,68155
2254838,161493,61096
2344904,436879,76530
1117350,1212353,61105
1006291,1131559,69815
2339611,474336,76073
1335935,1033685,67732
415922,784285,60652
708099,1372748,61192
1809883,802696,71633
2123716,515310,106100
1559748,518321,73494
1631694,949537,70509
2327957,35367,121348
912907,995912,71396
893089,1130534,70227
2436862,404799,78295
2173931,746145,119949
1088387,974796,71006
2446944,178174,113134
2334321,52848,80146
620569,1148862,167627
892505,787788,61275
2374954,402430,78002
520495,946318,61272
1749859,701166,72181
1775820,368227,76099
1364757,737191,71292
2246094,426982,141638
947159,883068,70328
1388190,434455,71942
2145575,333812,98527
2299912,710649,76134
147179,982755,61356
1414966,958628,69934
2193664,264570,140798
2018854,453639,101282
2450941,422197,77858
724590,835750,61150
2506868,272925,104664
2199319,391816,142173
1099178,727270,67926
803708,914621,70131
133666,944839,61547
1665760,723013,72013
2440700,157873,139834
2519344,240114,82100
2490791,363672,121776
2245688,56878,61474
2261674,149296,61034
842231,945434,70570
2079990,625497,74573
1635273,879222,69505
765392,888292,69808
369556,1042329,61678
1617565,891038,69247
2289797,663330,120274
1204976,861027,69410
1551563,504895,73404
1764008,432581,78785
2088390,619573,108580
1054607,723244,67411
1225125,749630,68686
2192229,396715,142570
826627,1132666,70384
1089839,560939,69152
1593183,1025371,69480
2402810,457746,60379
1463034,640093,71146
1186117,993735,184867
870028,1031200,71235
987284,1106368,74221
629237,1217938,70215
1739214,922605,71233
1384011,485325,82905
1150959,572033,69868
976193,1092412,70218
678667,1054149,71078
566706,1025591,70366
1795586,658023,86167
2213596,143259,79191
518401,1376862,61315
2174495,785226,74682
1898669,862132,90112
2353362,23371,120971
2509406,390923,79128
2426779,32613,78213
2152855,151715,78239
228830,992547,61536
2029593,758096,79323
2169830,632849,75158
2249268,152379,68713
2199009,694249,119406
2507976,838,125048
1806511,380593,75651
2194390,429860,76795
1175729,924938,168382
2449242,614089,59660
2374985,651587,120065
2097973,139174,77670
1855675,624091,74003
1352159,692327,71599
570512,1189061,69902
1649445,651272,73243
2049183,484327,107013
1449124,886937,70444
2337325,205674,60272
877269,913698,70347
2274263,154724,60632
1386109,786944,99434
912961,968977,71019
841189,861259,69922
2455798,603072,59528
2316360,239943,59532
1603810,313983,74376
2347646,480660,76249
1718504,960592,70483
1996930,786888,74066
2269549,462537,76563
2486727,253778,83603
1185711,859933,83851
1934040,640097,93728
1797867,918096,83166
1751756,368549,75497
1558539,740101,76233
2426822,237171,111257
2288575,759450,76143
1997770,352969,75412
927568,838651,69872
2492519,164490,80928
1911128,363637,91408
2408896,327861,78520
2335815,521571,87326
1287266,982443,68759
2239119,745464,78578
1652257,783991,70877
1102099,771323,70240
2396935,744153,122806
1039611,619767,68230
1053151,651213,67993
1431768,741117,71929
1155291,816044,71783
2307466,362212,77122
302955,1206901,61519
809049,811993,61068
918303,973907,71102
1237497,671066,69920
935860,1208403,77763
1760225,491986,83271
2041757,323750,75440
1020937,649528,67344
1366216,988896,68919
1886405,292337,76249
1267659,1114234,74529
2333473,79782,79317
1160091,803462,67464
1060533,590582,68601
431142,1224018,61330
1734037,755662,75317
2279997,680608,90668
1743028,587292,79027
2008921,617159,119780
1497239,496516,72592
2332971,742372,98408
1627128,437084,85205
815602,931166,70446
2301657,741393,99351
1217440,892277,69485
1922509,529784,88134
1476197,721537,70838
1930496,420440,98436
2182801,467401,75731
1738573,902187,74558
370677,1086973,61295
1604459,787699,70368
2114289,845572,93985
623606,951709,69881
1035455,1080923,70144
1218469,880363,69222
1992420,643789,73901
2206881,802203,104005
2517306,185834,90196
1548496,857087,76000
1345463,1033800,67884
714779,752952,61567
1767270,812742,70931
1570811,792452,70480
1518446,678471,77824
1606016,514734,84752
1035774,558279,68376
1917494,344824,111676
262374,805626,61218
2328982,689125,122470
2221117,503666,75818
529313,726733,61763
1252812,892802,71286
2209977,614760,73854
1265100,1066455,78682
1343908,430415,71714
1721820,273795,75967
1284632,1122287,70730
1167338,824309,67230
1073218,894851,70926
2190765,97256,98146
1046898,966902,71243
1044637,1150283,78019
1197752,603449,69967
1223409,972125,157263
1952307,630740,73695
1117308,699707,68714
2497451,375254,108905
2003903,668348,83834
1262614,960406,69813
1196690,1019863,118533
2494580,253107,96941
1518056,877715,70318
1041338,909693,74963
2111227,652981,105209
1924510,626585,72938
1547849,553963,83853
2441141,334675,116229
1108825,890227,72193
2365061,261534,59915
2377423,461186,58428
2218935,222920,78583
2502039,229464,100658
1601360,664744,72381
734131,1030773,71006
2158594,549167,86069
1103977,993195,70789
1046034,1076970,70265
1738133,991269,80232
414554,774924,61033
2233797,186540,83269
2109466,776723,75304
1962122,303735,77691
1815132,218153,76227
939492,1002293,71170
1433821,571424,71426
2341531,46422,121122
583381,1117462,70388
1853924,770798,72806
1348241,843938,69850
605657,932729,61346
721813,896412,61778
1212745,624070,76946
931887,935306,76952
1563363,928081,69881
937851,1186602,61553
2256833,636057,90058
1092761,669393,78840
1005184,936781,77301
1736940,299197,76139
308600,1386863,61850
2391528,659424,89345
171744,1029592,61396
1680540,622565,80678
1685608,1003886,69536
1306862,421970,71991
1649641,637724,73571
2348407,340803,58745
904036,954821,71061
1401833,967494,69389
966360,920854,70801
1252396,1174793,61114
1749664,862745,70929
1349781,700375,71584
2229737,495647,76023
139096,870052,61180
1295185,587341,75425
536304,1367921,61403
2508929,305815,116221
2178945,644642,82969
375412,954901,61451
797484,974832,70795
2096471,404768,76662
1968209,220129,114321
2332385,316229,59211
2370000,732620,95942
1154765,547786,70233
2440801,576501,58971
2417550,515899,58344
2002768,643552,73806
2140476,644890,74322
878943,929030,70578
1207564,993130,184941
505679,1120273,75152
2322123,583176,77191
1041792,1005594,70866
1570386,766412,70463
545329,1296523,61388
1890175,318837,76194
1073073,972460,70994
1437660,733593,71979
985914,915236,83491
1624688,999285,69155
2232870,512080,99264
1537622,574212,91806
2023091,685530,99535
1541420,560813,83747
2034513,440766,90908
1078550,656375,78813
590024,1415452,61306
2432652,59958,125587
1196882,954478,70721
1009199,705427,61494
1463466,674487,70957
2233817,584031,74039
2507278,615875,79233
688425,949171,70080
1359538,618234,72048
2076368,186435,76630
800097,1026029,71265
1107461,671871,79110
972288,577406,70039
912576,1052295,70779
2219953,131712,79227
2329999,467856,75951
1515812,782896,70829
816751,1059533,71193
978968,819332,69859
2305666,523721,148213
1216914,991447,199916
1484758,580813,82622
69294,983673,61669
588135,1061124,70601
2330622,412603,76670
785798,1147659,70384
2090754,818279,73396
2131629,766054,106003
1497205,733505,74900
1694740,951421,76884
2167877,748838,119816
1109669,1013543,70646
1396211,470821,83051
2429691,280319,102931
1006898,941380,71156
2369852,454879,77622
2327247,32485,125456
1737538,673947,76382
1052939,575032,68761
1565937,377027,74472
2491454,139432,85872
1743571,847670,70694
2460950,505964,79559
1316439,1126459,61022
1392705,735544,71676
656015,905311,61065
1240555,525047,70912
1110714,988088,70761
1530816,671744,76997
667068,1006418,70544
1509445,570328,83193
1365684,887874,69423
2188301,723951,120638
1489315,765320,70953
1258351,655832,70323
840253,708052,61167
2438955,96798,136646
1347242,582941,76759
663564,1241571,173292
1255417,752558,69333
517599,979920,69733
1608134,689179,80146
2329101,38797,125572
2227806,737216,121328
2416840,84452,80210
1317809,1018781,68088
1950521,482322,75250
1274607,1055634,70551
1766120,424781,76465
2053467,620483,120919
2391083,677250,77202
1957302,671688,74155
2510599,78840,116257
532089,1372707,61321
1047803,545674,68687
2369903,528409,76436
376528,994084,61346
862654,677684,61195
765929,1326361,61248
2446883,291044,103851
1124403,711954,68521
2379312,166368,86672
1267618,1082382,61781
2395747,656376,77277
1132695,803338,82045
1526337,715795,71050
2321330,259920,59284
2511651,573779,81639
2406743,271725,78501
2279316,372958,146796
1748716,754930,71313
2296006,539579,128271
2126466,294109,76690
1421167,415871,71808
2118096,283773,79624
1158969,556151,70132
566336,1312743,61059
1171825,934215,71382
2158986,410813,76542
414297,780929,62172
1620378,437657,73917
968761,819501,70163
2055958,673306,105967
2099256,680480,108089
1231496,488464,73395
257032,1338664,61448
1074688,1139453,78548
1711810,546616,76054
2339453,134845,79634
1425672,743573,71860
1250799,949447,70313
772156,978882,70633
1108445,645921,68655
1059183,1064090,70259
2450447,498813,58934
1956065,204238,111779
492222,1195017,61534
851882,1073129,70898
1687957,929723,78872
1894268,416636,75200
1871208,561035,74732
815393,932211,70474
1117579,854501,73988
1160626,495091,77390
1633820,796856,70486
1264590,1081151,70695
1329258,1097609,69161
1730726,855140,76449
1449385,1061933,68878
2344959,203567,60431
647019,948055,69837
1320403,1037444,69515
2399947,461198,58038
1679344,878773,70187
1339232,645032,71731
1671171,603848,74146
2286840,69000,61564
2086980,381407,76747
2375777,737191,78244
1932943,794020,83317
1110397,854263,70679
1403880,1043856,68901
2401216,570690,79920
2263164,765825,75852
1902337,797812,89813
2417447,573212,59341
846501,1181383,69920
2442799,400007,78176
1133718,1038751,70203
2430017,138865,120731
1306278,621515,71480
2319624,48032,113493
1950056,281256,129589
362853,1071579,61272
1588624,1017588,69686
2284002,130185,60657
2480373,166375,90768
1040720,973455,71236
1554685,876522,69560
1277323,1064799,70935
1548109,928415,70080
998058,556950,67789
852908,765436,61449
2267785,622854,89955
2404344,478925,58082
2091875,305403,115704
1069099,551721,68947
929673,1003469,71241
2017319,635852,119658
1033911,928081,71096
1845299,304629,100317
557241,1315259,61321
2228996,590490,108564
1600530,590943,76823
1568806,635231,78996
1528389,646747,77472
1905818,352587,93750
397975,1076113,61757
1034418,870399,70520
1022257,779217,60931
2080746,634191,82003
391173,1240070,61588
2335018,627002,74569
1707060,997957,70396
868251,1042927,71158
1195974,828925,67310
2512386,594880,98699
2312200,476779,76646
1135959,906370,71354
952615,1189643,77793
2465827,499242,78965
1554365,816053,69893
1359743,516754,83088
1258439,571319,71708
2397115,265408,78424
2397462,487597,58291
444726,1021686,61513
956600,1202766,77710
2447497,117261,140952
1997299,499227,112441
1338669,917733,68972
772946,737068,61053
2443031,138340,138685
1157830,765723,80625
2249083,792380,77219
1320034,423119,71855
1465766,361562,72855
1428487,534963,71773
1021095,793497,70136
2212843,636736,100483
1579415,969316,83878
1387724,481775,82892
1435258,556627,71431
2449051,372869,78390
287757,817593,61170
2501177,688636,60748
1015969,1035943,70711
2236316,794913,99384
2140029,357886,81316
1121862,715048,68352
2318740,570842,77819
2240603,548916,119347
1477440,348150,83637
592662,1231764,70076
1319493,797417,69932
629768,1266593,69812
2240916,294650,85368
1272153,801884,68900
1052916,1153769,78176
1494736,941559,70436
820367,983551,70926
1010730,934836,71048
1914586,354187,76554
921071,946842,70964
1045689,862621,81678
1942045,890389,85327
317750,912285,61611
2505462,541685,112555
2408943,648367,76928
1069945,949283,71239
1101432,923426,71359
827307,983241,80725
976699,598894,67602
1866605,713671,89831
1561103,850176,69402
2320831,99334,79829
818800,945662,70529
1915284,659345,73298
2503546,567725,78876
1517894,465865,73263
1337226,802394,82727
1217859,804558,67783
2472612,543944,60117
1149600,769550,80878
245772,1106445,61167
2032473,512971,86293
1795583,470468,75503
2066431,206240,115178
2257150,420139,140680
1302596,989600,68236
2494374,251534,96854
1110050,788185,70523
343041,1165305,61410
1229018,796342,67975
1163289,834003,72631
2218320,225741,81264
786386,1043453,77490
326912,890767,61553
2278998,680812,90607
2520003,79111,114750
1144917,954265,71081
1453313,818111,71943
1872429,390576,98828
799372,993919,70956
2523351,528890,137864
2272582,526334,118416
1263856,500761,88561
1544903,380890,84715
2049758,344305,76039
1874635,902509,75508
1741709,752039,71143
1462322,491449,72112
1733353,377119,81656
1474723,817115,71244
2169857,178080,78049
1284524,1022425,69192
565063,852611,61896
2254757,185400,79170
2118995,456787,82235
2308885,559524,138314
2371218,170609,78864
1947275,574107,73586
1334711,626500,71781
2149638,214577,77488
963977,971301,71268
1742080,566382,74013
1132225,480492,70474
908762,1238824,77757
1167251,925372,150215
1379404,776943,71083
2457149,122958,138850
788589,942448,70394
1165288,773012,67887
1683842,818884,70936
1012057,526143,68498
1261844,586736,77223
2017028,338629,76701
794847,797537,61244
1220523,664327,69706
97877,907793,61455
1747119,793042,78947
1730987,416446,83226
2008117,695705,86633
1793601,927665,71349
2110546,336038,115872
2184914,684137,76583
1503092,711966,70872
1026637,518950,68743
2385539,402310,77649
2449664,78129,78920
896263,916245,70619
1467121,1080649,69056
819694,1096830,70740
2476469,688928,60513
1893913,331616,104728
1944052,778354,83551
1800393,575374,83376
2403479,187165,124389
2453133,96510,140774
2321817,148329,60885
2002060,396873,76914
1861520,593722,74447
1073065,958326,71224
1935275,664928,73136
866526,945135,73698
294487,905839,61422
1137872,892004,74719
648133,990841,70255
2334008,546110,117628
2052442,455347,75241
2126311,408559,76660
839054,1067584,70905
613367,709926,61318
778424,978508,70695
2248711,510578,76639
489682,1155267,75433
584005,1225177,70025
1796028,627472,80804
2013519,759845,73788
1260544,507537,83592
2120672,527101,113628
626033,1253971,69943
908138,924318,70563
1149422,817099,77412
1874955,623804,72759
1144565,799233,70877
814289,692719,61025
2522395,589614,92854
1215114,706100,69437
2406799,106312,120908
1912191,811336,89799
1366019,971540,68958
1477124,1072566,69132
1733719,759879,75320
770580,1277307,61245
2255319,607837,88357
1878316,417213,98769
2183587,223799,77696
2496600,484947,111189
482479,1126793,75378
2437768,152682,136781
2130742,681287,80559
1422203,454437,71989
1045445,814425,70025
1729044,331502,81110
839745,912776,70291
984737,962800,71220
1977549,707574,74295
1054315,528993,68831
1641935,932219,68886
1899549,219220,118068
1151136,471609,70800
362156,802738,61455
610140,995681,70256
2470778,152546,134639
1407078,774123,71308
2271838,583515,66567
2508017,16023,131785
2049852,701003,82646
1529734,965266,71550
2365937,719875,104633
2199885,578678,75152
1884445,312235,89015
115486,880874,61577
844982,1046073,71215
2393275,65954,120737
1603816,451569,74116
1657969,535584,83746
642063,820928,61266
2188993,434288,79670
1693892,581260,82769
1331068,870168,69396
1986694,794438,72884
1147099,1007309,70517
815814,1132604,70401
2414586,682174,77163
1364721,687100,71773
1847930,208072,108773
2169570,719500,119283
2251474,520971,89875
722180,726164,60754
1934871,189858,81000
1685860,539925,75138
1173653,787845,67373
2228228,339365,141328
289556,1365230,61622
2307348,533494,155903
2358765,746820,79069
1222804,854839,68364
1902904,352671,92695
1576129,438224,84795
548954,1027133,70215
469831,1263617,61531
647080,1145571,161876
1730718,963767,71003
1683694,376444,82509
1742448,681563,78110
575795,1253303,69795
1684893,284412,83226
2240259,615660,119184
1877937,700902,89945
1999567,228117,114017
1037078,1138927,78029
2458320,488440,78866
1592791,383723,85310
1021932,834974,70104
2510329,141524,119225
1674140,372889,79151
825544,884446,69991
1444336,879922,70375
2425218,143158,121779
2337630,205736,60232
192848,1066165,60782
1431030,773827,72938
1627884,639249,73241
992097,554377,67592
938638,823373,69882
1597872,934282,71548
2178057,549540,75197
1576225,416847,85073
1575579,987688,83208
797075,1134238,70505
1335861,728508,71149
1769127,248587,90070
1316278,1128848,74792
267496,1306214,61306
918218,1017087,71124
1960286,528790,74323
2367358,755173,122364
527315,1352164,61568
2401006,313025,78636
612804,986533,70294
567008,1100533,70280
2411017,305019,114475
930232,910212,79880
1319221,452276,90933
2253680,430302,140826
1733567,738711,71908
1194541,867968,70235
1790691,228102,76808
502958,1377502,60943
2477450,693908,60488
578161,959306,69792
1028700,953104,71295
1439090,886320,70323
1546909,523060,80184
1273425,521938,90201
1739108,826822,70954
803375,760016,61055
974637,865073,70366
2235063,312488,138656
1309033,923195,68526
2221405,510889,96035
1525642,673514,77579
2227726,216604,78521
1237946,927677,71115
1643987,338406,74095
794231,1212343,69730
1970198,552157,74029
2465353,213528,83112
2072221,231638,77388
2357041,196024,79292
1390042,1032990,68843
1721426,765163,71127
2450432,207920,112914
1519959,984699,70529
2502329,59396,116193
2235912,386896,165284
1924221,916279,91386
1555557,797393,70417
2199016,527078,100878
2270799,300848,98729
1026730,604150,68012
1595132,569076,83246
1722706,522051,82399
1138938,908460,71261
2082484,228115,77122
1630903,340206,82090
1420213,575563,71370
1204440,721725,68652
723526,920473,69855
1073184,761452,69567
2025458,209971,126282
2438858,440085,78501
442080,1373526,61106
1210706,920262,70394
1235044,1009314,136478
1170243,681467,69038
1277199,565221,73187
1444162,749151,71988
2243723,649478,90472
1980752,523956,108045
217028,1050834,61354
2329943,515964,138670
2207937,613387,104636
1550263,734985,73825
540658,1223954,61646
2111694,647631,95664
2412194,142042,121222
991663,890848,70579
2001207,387630,84712
2234076,253508,78451
1437781,572497,71322
2143463,753136,85783
1686945,1019623,72988
2133429,694542,74593
1703049,324640,74476
2442855,131731,79971
1107716,1037118,70508
2443729,120567,141668
2114936,628302,73065
1060482,694633,78195
530376,1244574,75485
1509760,856822,70229
2404170,426551,81350
1116445,806346,70618
1919215,351963,99592
1389167,528876,72064
1416728,921587,79294
1687562,786893,70652
880850,924516,70436
2188951,423492,76765
1825018,463217,75256
1621822,727848,71442
1808955,752130,71700
906942,874250,70158
2339235,483695,106545
643433,1001577,70455
2311967,65382,80033
861575,883378,69997
2391832,539019,59242
1835643,279250,75720
2449838,463407,78559
2520601,21533,116196
2502331,169365,86889
2337215,493184,94044
2299195,164496,60329
2346462,528657,76931
2493153,310177,115852
833898,768331,61879
2480523,360809,117842
1623815,290509,74321
761492,1015607,71003
956347,699276,61492
1006387,1099312,70146
2171508,487999,75948
1730286,575386,74079
2423364,318465,77905
658133,1154753,84174
2262221,658034,90633
2245758,651899,90446
1222106,610638,70511
743820,918716,69910
2455312,201767,78068
529601,1351493,61455
1323356,1076694,79066
1737159,494797,87483
752385,1092227,74719
2094209,283586,96097
2220648,690511,119274
2269719,140432,60844
1673575,766269,76652
1410424,370392,71889
914253,1229178,77652
1761289,433732,75101
2194326,520409,101592
2497958,569140,78973
2495848,375219,108388
2339526,641905,110245
2290560,524251,142863
1498920,606170,74816
2158331,147618,78319
323239,827005,61483
656471,1258102,69752
573126,1382859,60928
2318371,248345,59232
1953546,805122,83509
478319,891936,61117
2202716,578651,74997
460235,1437078,61041
1481305,900158,70728
2221296,510396,95931
444713,943952,61705
1556071,1033809,69821
970673,862701,70288
1652614,923118,73110
683950,986257,70471
1053963,1191027,78547
2522558,80104,114178
1634292,396068,77116
1524833,719240,70866
983466,1043441,70750
2494718,610996,60330
2385715,601847,92807
1725851,446767,75600
2285864,465100,76408
258143,1207108,61800
1659833,938653,71976
974621,1096291,70318
2458162,38442,129791
1576925,570926,92513
2153690,315250,77005
495825,1350015,61306
462321,1148599,75110
1908028,880819,90054
992940,972245,71406
1598084,517408,84608
2115271,274108,103689
1295570,546647,97058
1815929,234816,93273
2481238,648524,59918
1537870,404327,84749
1689395,508612,73941
1991914,394881,114904
1686903,686718,78062
2404641,181782,127024
762993,932339,70258
853404,785010,61059
477190,806773,61122
2282654,417296,140082
1369774,1114675,67341
1064573,917187,71121
1051976,1154045,78556
2217435,635687,96246
1921907,538682,84614
2249540,118967,61296
1004570,850574,70176
2355737,259771,59675
1737631,761278,74048
2278576,235121,81939
1598894,499844,84668
1791516,710531,73478
2471539,466965,78235
2257827,144036,61105
2502444,452496,108947
1642701,399375,382930
2090451,557559,105102
908781,1095414,70628
1631133,600182,78769
1844421,242517,76519
1854344,769249,72806
789690,948115,70469
794239,1074544,71083
2263245,246989,78258
2262591,155807,60927
1288752,740120,70185
1108067,823714,83094
2523351,500019,137278
570659,1001505,70001
2200075,382573,142101
1847770,372226,75874
1479840,762005,71191
2265527,790626,76693
1275260,992116,69884
672565,1258863,280683
2395391,746344,122100
292933,853006,61375
1902532,762481,89569
1405217,666222,72127
2238703,324277,105878
2387538,716777,104193
1586904,529854,73583
1342774,1133410,69542
1164977,940678,168328
1962950,564326,74127
2111865,534678,118794
2099998,806197,105914
1714969,442559,87471
1272695,846508,68466
1486067,745806,70684
2324900,512259,138507
2053401,273758,181649
1170831,1011612,147643
2053369,800535,73706
2219502,190654,79255
985106,856400,70330
1146746,909943,71258
1897823,198687,115954
1739603,320194,75861
1150589,964108,78628
573606,1251747,69782
960152,864858,70265
1516915,542621,83436
1383429,998359,68996
2153311,618420,73468
1609166,598086,80138
1593914,344555,85321
2100976,405025,80247
1446295,481006,72087
594220,1163305,70286
613292,786060,62000
448000,1281348,61437
1769264,384486,75378
936091,978153,71134
1395735,684863,80413
2198136,367575,142036
1589060,429090,85001
1779822,306712,90462
2399322,218031,125072
1714869,365231,80246
2300883,407559,127327
2048535,627070,125615
1128099,898319,73678
2061212,577221,74145
1725128,809687,70745
1433013,949154,98259
2481633,554698,79139
1257001,795274,68640
2125701,783561,111149
1955592,899943,72592
1932755,435225,97545
1292317,681527,83758
565565,1030314,70429
1969081,408392,115852
647053,997251,70441
1247888,629540,70446
1207318,872315,69662
2219035,668965,99884
1444121,1025869,71239
1437192,1025880,69250
1903080,349208,75905
1395351,709824,71846
1677186,875995,70263
2152608,148634,78299
2259386,802790,145486
1362756,873392,69661
1668259,784176,71024
1985256,881146,85106
882049,991594,71236
2398268,148956,122062
368595,1040750,61171
797157,601563,61135
1117393,708553,68297
1114709,1081583,69937
2008062,363363,78408
872886,879454,70078
790747,1000306,71058
907687,909133,70612
2324575,638206,119472
2391924,462133,58108
1611214,954900,68865
550226,1035935,70298
755368,998163,70768
549326,1434666,60940
2418791,488552,58190
158868,1003251,61681
512575,992207,69942
1918075,270223,115134
970562,1065316,73020
725631,777445,61919
1498558,995336,75506
2519906,672934,61531
1626646,1036816,69386
726558,1186338,70230
2314639,699115,122661
1126487,636238,69038
947117,920999,70726
1837934,832776,71679
1603707,472058,85162
517315,1228410,75445
1945148,597944,73218
1097747,683338,78905
2254344,410860,141430
2286677,720127,75997
2240325,277869,78170
2114357,642303,72900
998226,802708,69746
1434044,792554,73213
2318967,375715,77137
1445423,497036,72420
1106258,640826,68554
1843389,278452,76130
805347,1252232,61205
663240,1177542,187030
1539642,943148,73348
1785017,974476,71229
2279828,600669,81676
2197458,560671,74922
1754544,843272,76464
1922947,337458,108021
1044218,881045,70709
2268459,126904,60763
2240943,377136,140370
1171648,966979,70706
1752545,826543,71053
2409576,511945,64925
380799,1260181,61461
2138310,732749,105890
2193534,646739,84240
426067,1053101,75078
859923,924955,77205
1582176,989457,83003
1667240,819688,70776
2006369,847031,73394
1384961,626742,77426
1055236,876467,81818
2401368,355975,58995
870932,989343,71163
1116498,803305,78494
2511391,326954,118073
1684298,652803,73386
2495258,243621,81140
2409997,170316,123318
2272455,555438,123418
2094364,556569,108739
1557644,1019366,69871
2277996,448523,112821
956731,544686,67251
1487698,800423,70740
2012472,455146,75716
878513,883192,70100
1216550,959384,166038
1339038,537221,72021
751294,974974,70638
1600271,946139,71331
467391,1398899,61695
883427,926046,70509
1712521,484087,74605
2402714,318551,78490
2335086,577996,92417
614612,963003,69994
1515164,750580,75283
977510,539047,67814
2427862,11412,110973
553234,713482,60966
824965,996067,71032
1435753,963865,69780
931888,1159678,69747
2085615,409179,76852
315671,1248008,61141
522716,1324658,61093
1745552,508742,83771
951008,830354,69841
994225,582581,67367
876018,1142465,70204
1877483,385516,75097
2395419,691515,76887
1810142,291657,76834
1679169,316808,81097
1326182,571156,71934
2328037,366238,59702
2517774,436468,85085
2391550,433414,82235
2076958,383688,76820
2313857,96597,80058
1461747,674502,71042
1390446,1055859,68402
1859017,333398,75587
803955,987658,77157
2459368,116885,134317
300385,940447,60802
1066312,860312,81240
754625,1220117,69815
2041101,710530,92739
1772715,702350,72315
751849,923312,70107
1695436,772500,77078
1012286,554632,68191
1591763,708120,71838
1316293,605636,71738
621490,736254,61321
766938,923745,70158
1945620,448416,93721
1154835,992864,70746
2277799,608374,74003
1878180,465355,75215
878745,1245867,77592
1629110,582626,83163
1871056,302159,76054
1309502,542771,72235
1573444,592338,84616
451716,1065508,75185
2438045,283149,102262
2327441,573397,77755
2099860,624951,111082
2077250,183092,92776
1040047,939676,71258
1994219,766863,74229
1622337,345033,81287
387109,1396411,61186
1515747,683920,71064
1221761,628430,76182
533768,1285983,60882
523256,1018986,70115
2175036,331222,142164
2302111,129198,61025
265728,1292236,61478
147884,1052252,61346
1049705,722643,67269
2018859,365979,75725
2306532,746187,101660
785758,1005619,70965
2270297,198775,60701
2383101,436714,77386
2245965,793513,76515
1269872,661960,70480
2126780,584411,118020
2379915,472468,58495
758101,1198824,70096
740836,919983,69961
2246748,648061,90485
1744895,898243,70996
1599843,947874,71517
1072859,623774,68435
2462159,47122,83723
848914,691946,61290
1785476,873869,70991
2208702,674058,81515
1178627,913646,71312
1750925,908490,70835
1321855,413866,90559
1223633,1038846,69938
803429,1160125,70320
1281745,519674,95454
1800316,752100,71888
2447319,314024,104715
468469,1026557,61540
168942,996470,61336
1076984,567046,68986
2094643,844823,74096
1140838,934877,71303
2486757,203551,107928
2076143,860187,73477
1172079,920028,164060
2472077,502293,78924
2089841,687079,107989
606684,979895,70130
2211464,263846,140281
1601692,336206,93148
1849893,943955,72569
1721830,699611,81929
1052997,637206,68024
2252889,476096,76695
2228051,638503,90648
2381274,671321,120082
104518,1000535,61358
827007,1027740,71262
1445446,590310,70985
1069834,581250,68688
2151804,300847,77228
1907101,874906,90049
1096951,527968,69705
370848,845013,61227
1801200,489914,75613
1401746,996967,69271
2283615,726830,75672
2435045,294504,102644
2321373,599226,74734
1453711,683615,71230
1302743,813231,69406
1024825,1057008,70523
2404847,388663,78559
886601,854973,69869
2496047,256059,111767
1859338,582795,74719
2302684,44171,108876
1997763,170722,122089
588021,1224482,70150
1128273,964666,70937
2291232,426366,145406
471356,1192667,75550
1100627,894996,71311
378310,782835,61161
1328666,1086246,69408
2114351,563571,112776
2031854,178273,124176
1342116,695320,71532
2033258,552506,86803
2212309,443739,142449
1064851,565987,68807
1556937,1052933,69684
446851,1162212,61521
2506326,607742,78973
2375965,677053,77039
397047,1494783,61483
2402944,628105,76794
1447105,866541,74959
2205407,663091,107826
580318,1074441,70444
1411994,982906,69411
2435920,167796,137913
1363305,388010,82791
2000986,556772,85202
1182391,1033138,119666
2501714,229591,93007
2491922,524330,78771
2241230,608887,117826
2012892,404278,75078
2436927,603894,59531
2464426,229015,77143
1164997,681842,69027
1026589,541604,77977
2520631,386233,101553
803693,883781,69982
852378,1225359,61653
2257041,332106,77399
2015091,376776,83186
1429286,443091,71753
2210661,665576,98598
2231550,437114,141566
1117862,846401,83432
362819,1401677,61074
861173,719529,61242
1407010,634216,72030
1028368,1100530,69917
1977322,353829,101402
2112823,623926,81220
2390965,719834,99061
720433,1290880,61259
1540829,906684,69975
790980,1290652,61341
1450792,591043,71179
1130349,717338,68373
2002622,771472,73999
833102,988562,89872
1433129,440952,71950
1476395,663482,71000
831862,1159317,70120
305304,1437285,61582
2201629,621271,89857
2238829,326005,141865
824641,999621,71148
2235374,291004,104101
1035548,874553,70688
2309628,758239,98413
2389333,653366,77446
2335221,476182,86344
2280070,301619,77590
923029,969407,71252
2224383,163754,78842
1393397,852132,89180
1883846,387829,75402
877746,971781,79227
1942656,810434,83309
2003555,247294,77676
2378098,697205,76749
1147148,841167,70619
2290066,130696,65974
2008403,706891,78407
1815133,275426,76512
2122078,102580,175090
2488624,660867,60274
2445496,84323,129384
500942,1169119,75483
677544,1241103,69929
1780891,530397,74558
839258,796062,61580
2425761,466863,58452
2440218,657582,68307
1245818,612582,70346
1547282,927102,70092
1991125,370045,77650
2288806,657336,119888
1603373,546781,84589
