//X,Y,Z
2227536,474004,76158
1643195,727122,73309
2233692,210602,78469
1097986,1074786,74470
1200143,1003339,185219
208296,945299,61597
1106291,741977,67606
1091513,622539,68630
2148438,276212,138257
2297234,406949,140773
1154398,1103831,61071
1222086,698110,69428
828617,1050625,71050
1126752,615938,69186
344075,1129060,60553
2030563,781170,73919
630692,1149423,70587
1095463,801350,81934
2317285,779580,145290
1888625,883540,77911
583821,1145273,70173
1582659,983067,83124
2462459,38448,129706
1423927,595470,70950
1416047,481238,72348
1033257,568441,68395
1727948,699319,72358
1011154,536356,68346
561294,1179336,69898
1939709,575187,79187
1490018,529385,72173
623751,710386,61040
1400926,420428,82251
2502947,480926,120728
1825798,615554,74619
1712523,708093,81489
1138783,693923,70073
1579779,977314,70258
1288029,916894,76757
2021917,332044,75377
431706,1034713,61529
1559789,628250,80624
446955,910244,61553
2512461,139155,119477
621325,1254167,69990
1417275,1023392,69249
2252766,565476,118249
719237,1355334,61271
943366,1129401,69661
1676900,738977,71708
2472232,63562,113637
1528323,745996,70757
728919,935647,69997
922367,1058723,70691
2291380,257670,60144
1104081,832175,70429
1703800,665617,78952
664797,710306,61309
1617684,790612,73821
1624373,310098,74167
1075518,1015191,70694
385633,1154761,61330
1200560,1014000,119437
2465622,499978,78878
1843693,452473,76060
2043655,338175,78976
2383724,592785,81288
1478389,872536,71106
2491956,158361,82920
1384041,647144,72037
986216,1037018,70613
2512279,320427,117491
2426503,294400,103798
1084398,762682,67538
2443252,45104,121925
812485,1084617,70908
1905299,470347,74413
2137389,184422,77733
2283468,434675,77185
1762279,499645,85613
2095871,116276,116011
1055507,682861,78328
2232438,767388,110015
1142553,627886,69326
270869,1342734,61766
2432191,552467,58683
1475363,420426,73057
2376023,20074,119955
205562,1171600,60839
881694,771236,61733
2118955,342870,92631
1557392,319336,74170
283224,1363385,61175
1916441,770327,83441
934318,1154853,69866
2037889,346090,89279
1062850,1150543,78184
1459987,1100814,68530
2006411,438744,102902
2507925,474736,121231
2225346,440191,141898
1527464,1000790,70355
2051754,484698,107106
812977,895024,70113
1337169,1105067,69342
2208271,528585,122062
1452871,580018,71068
2392471,660643,120841
2042348,718774,83407
914445,1225809,77701
2496703,435498,121545
1202635,929258,70911
1411836,589476,71342
1940145,912732,91386
1085131,792696,70045
1041352,587178,68489
2063211,276516,177881
574390,889956,61937
2419718,461958,58421
1288528,1055271,61150
628626,777257,61233
1878950,708515,89804
1602154,912149,69261
2502049,97800,114467
1812435,472822,75069
2339544,587173,95842
624534,1000034,70324
1771892,422981,82954
2278787,310328,82139
2132648,590355,120271
2345891,308267,59598
1855409,889845,71572
2518256,269498,79553
1183380,764334,67934
1413200,542395,82310
1479290,574130,82444
1360747,742534,71292
1537050,352027,84466
1970934,529960,74928
876773,972065,71107
1303944,744748,78399
1237740,1020728,70347
961700,967400,71200
1864825,523658,74978
957995,1083150,70438
878469,1234561,78149
1258226,970981,69755
1136823,1119880,61333
1122463,711777,68434
2434086,682812,77616
2037679,671176,75319
595455,1430826,61296
2271247,292879,83175
1908765,738631,83445
2346471,566454,77445
1363403,862237,69782
2515987,612621,78996
1073058,1017597,70576
2254966,369844,140953
1862104,608841,73851
1522650,696462,71084
707297,907119,70439
1461837,943655,79478
969886,1226060,78310
772893,1063541,71241
550763,1075685,70246
1844498,369502,75948
2047018,419129,92463
1550951,1008402,70116
1758829,619287,73249
2226508,529462,120562
1830801,324625,76098
2255754,719246,120362
2303161,638313,119687
2199166,420854,76960
1989547,184390,104670
1014674,1113778,69979
1821117,700980,72779
2410115,305928,114750
2288927,269650,78414
843626,858795,69896
2139044,485424,76474
1985995,503023,113489
2080514,567342,74295
1072377,835465,70341
2422443,682993,77356
1323000,853740,69258
1449708,674625,71240
1877607,472154,75233
2095657,804991,103137
1609446,1034541,69497
2318406,418333,76515
1790959,724736,72281
1893260,372729,75530
1908441,756816,90269
1192065,900232,70919
1136230,725131,70136
588271,1434450,60951
1245086,633152,77005
2357996,454773,76823
1149133,815172,70957
1712714,688516,76268
1959429,811969,83759
733156,1009017,73717
2450672,132058,136679
1234106,664875,69967
2494536,19962,132197
2357497,605997,120175
2467003,146255,129055
2145234,196636,77947
2313435,767533,84985
1860465,901656,71720
814606,730026,61600
2238924,615961,119658
1327539,421379,82729
757070,1076464,71139
2144322,548098,91725
1016169,1088326,70179
2441667,476829,58718
2414705,369604,78323
2236659,301813,148784
2026732,781975,73684
943687,959287,71093
2395599,594376,76942
2289281,627344,73902
1589810,763315,70640
1882278,439348,96209
1133135,750131,79394
656695,1069606,71199
1493462,500532,72606
2445419,108679,139480
1619765,938663,68792
2299292,265738,59863
1266105,996200,85220
2022040,569447,74132
957336,1047606,70739
1457037,843964,72803
2018191,221024,123207
539570,933144,61257
1834909,219476,76675
2283150,209422,60440
2369961,726693,98824
1967596,777957,72390
1522643,637598,76774
1113772,722559,68041
2288461,733115,79128
2043758,371117,82753
1761611,658344,84686
2212684,804488,102573
1854514,688060,73039
2443987,562245,58845
2180818,625959,74255
2393872,654213,77297
2518815,243444,85182
2020570,550056,87181
2309094,300223,59605
2384854,338816,59052
1269865,1064783,71376
2218242,271312,107049
1889582,815050,90091
767534,1142480,70521
950341,1134486,69946
2380812,520483,76940
2250166,141322,61050
1695292,662570,73308
840433,757781,61111
1424752,409066,71931
2012507,594354,77020
2029453,204763,126340
1121805,697456,68362
2471924,100149,131274
1357560,419648,82476
2127913,843196,84945
1448374,408349,72334
844823,1045397,71131
2210937,801725,102793
474028,1225726,74830
826388,702005,61647
1975339,459203,75645
1915620,918525,94598
1818205,475141,75149
1005993,860393,70360
1391209,734378,71575
845402,977640,89819
369489,1399517,60851
2521420,634568,79140
2370817,170952,78899
1989402,715103,76841
2167838,626324,89003
598351,1398953,61318
1295391,1049538,66015
1133846,760704,72580
1045435,1233884,61053
1893383,192714,115937
2152641,534994,88488
2245445,547140,119327
2418841,715298,77912
2053090,307100,151634
999419,872749,70469
2431243,539396,60934
1128323,681961,68720
1445062,611135,70580
2316654,59422,79745
847367,833944,61324
1854009,520850,75083
986404,714034,61031
1619211,724469,71369
2196191,476396,75968
598435,1010716,70446
1078674,1081161,70091
349583,1098839,60483
889234,896963,70226
2404686,588924,77283
2061755,353138,100113
2032223,853055,73643
2193823,504988,76039
2231968,710787,119982
1104737,770105,70187
851057,1204807,77636
2491940,697320,60556
1533917,865189,75618
2032330,552286,86962
1736965,961314,76582
2293121,673267,120934
2389421,295473,78695
2517098,10414,115608
1281552,602940,71106
476175,1461815,61670
2239528,392038,165671
1045618,970246,71166
1614625,357797,74553
1700623,656639,73196
192096,1139582,61079
1548247,869952,69660
2359490,461720,76683
2201884,610865,86447
1174325,922287,71202
2047846,834066,73490
2380587,602898,106886
1100430,615441,68767
1899120,679498,72906
76265,975112,61171
2455538,623427,59647
2202465,450278,76806
1617166,763017,70836
2126204,216523,77477
2215855,617080,90636
2449346,398268,77971
2436700,226677,110533
1165351,874185,72089
828565,1083877,70866
1448323,699265,82245
905830,955700,74001
950114,1160024,78000
1368800,797895,70878
1983360,350387,104127
1159485,1009822,70371
822105,957069,70638
2144953,448322,76363
1131435,740741,70383
2357472,273683,59464
2492804,82791,115662
826675,1009218,71072
1263690,1026079,69827
1565037,862237,75719
1323528,1070976,81289
2451809,643575,60286
880372,1223578,77501
1485927,425101,73133
644585,962407,70138
219980,1057573,60911
2127628,374941,76580
1818521,425077,75387
473313,1235653,61735
2219778,160567,78924
598378,1309551,61156
995338,1040544,70720
2308027,164097,60397
866028,846027,61116
2463701,636440,59760
1625454,649409,82106
348531,1463374,61052
1668827,771101,77690
1699315,459237,74048
1035435,1220938,60873
2204787,189225,83358
1576249,476176,74033
1216627,1019081,164555
2267612,580271,88277
1347074,954695,68800
865828,915949,70282
554185,954482,61556
766158,1000159,70826
712953,1107898,70889
733413,938694,70164
2006217,598315,73813
836791,1149305,70179
161695,1047946,61412
2258374,441646,142041
1767245,275101,91047
1191882,713808,68682
1005830,872253,70480
2245218,492396,79071
1007943,1007987,70935
2143923,646033,74396
2192132,302407,140928
1523039,527408,83814
2246076,667707,90508
1773901,483879,81417
2354506,344687,58594
1000791,1011303,70917
264459,1016166,61169
662528,1261760,70214
808294,1201491,69803
2225350,644383,113545
459500,1417746,61803
1346174,991089,68488
1310907,431239,72081
671721,1067505,71237
1022500,805046,69916
951204,681536,61289
2211248,578060,74485
2225289,791966,101490
2078094,129982,106809
575805,789789,62224
1661809,512001,74122
2111842,331487,117357
1737003,268416,76344
904094,1044078,70878
2519994,584443,105693
1031315,696355,67394
496032,848484,61494
1894907,784507,89776
1854640,338902,80632
2273806,89973,74438
169591,1097456,61303
2292472,631314,74253
1679819,360104,78009
1075057,965355,71041
861187,1027731,71425
2300999,409511,83717
1823903,235152,76223
2394275,645457,95234
1150481,614438,69574
1125711,665221,68857
2194581,100637,100227
936304,873348,70268
656929,720954,61190
823685,1122381,70515
1120189,882784,73370
1417162,975957,69532
946958,1156172,69880
784560,1045876,71340
2269436,724600,76142
1658276,741975,71527
918807,1017486,71167
1560535,578920,92265
1326508,1086213,90858
2397561,530755,58949
2337854,557928,77545
1203334,857852,69425
1233398,1036875,203054
2200420,611436,73929
1068114,881435,70815
1983718,772947,73420
2128998,357650,76792
2212402,624082,74842
490175,969792,61613
910000,1184150,77932
2178154,330616,142626
2357999,477372,76788
849746,1128503,70402
1910032,681781,72815
2255101,530382,118413
1539579,1024437,70027
2194561,517105,98241
2304773,461985,76134
210735,953408,61204
226873,900334,60823
1492374,823391,75491
2166851,328678,80482
1726411,601653,73644
2247056,427488,141741
1899592,402432,75382
615768,1079982,70804
1793540,807812,88291
1703565,561166,75176
1645979,1000766,69350
1606612,444634,85173
522980,706199,71868
904476,902211,70298
1545735,831560,75517
1137028,527781,70201
1229209,728014,69125
425439,1195215,60430
1693078,735477,72190
1883581,305724,76212
2279619,455141,111994
2235167,235185,82851
2342663,208833,60348
2418695,529853,58723
1275026,855724,68265
1708120,311399,83104
776560,799825,60973
977914,1064875,74889
2315524,534848,148466
1845650,619353,75102
1049343,928926,71195
2358863,639713,127944
2426976,74504,80241
2156684,552096,80973
2192160,505012,76081
1905447,515255,74271
2228682,733422,120928
575417,1057640,70479
2139943,285276,101765
159174,977216,60846
2504250,124616,119360
868307,1114797,70337
1958545,690198,73714
1077786,670183,78631
1817035,363713,76874
834476,930631,70386
2469547,152617,129194
1157938,762061,80664
2491167,700561,61213
2225535,356091,141031
835617,1058733,71101
2227499,665995,75143
407956,1190761,60931
2159636,620514,74076
1223898,1059793,68189
1751729,360053,75554
570143,1112463,70350
864769,769391,61077
2311818,345390,77683
1393057,499526,83036
529132,1439281,61535
1636221,644625,81761
2228893,516796,76428
2415922,621659,77237
1694484,643289,73402
1599684,1042649,75394
830677,905834,70202
2421086,372755,78157
2416546,634782,77173
1780947,964883,71404
1293159,1023301,68642
991274,539325,68030
1040523,718834,68917
2209839,251381,140771
1816565,269456,76316
1300612,553760,80012
1574142,851428,74789
1204048,854995,69342
1682047,600551,80438
2010715,511761,108937
1588099,563611,82660
1928555,709040,72527
2413061,295127,94848
1572809,980888,83315
1789724,423099,75188
2321149,751317,106580
2025657,335612,75271
908250,926441,73737
243190,932502,61347
2034245,653970,120259
2144456,244212,76966
2483318,256502,93515
2283801,350462,110459
2250761,446685,77501
1018173,629439,78149
1041835,802837,70000
1641825,454346,73907
1138578,859071,70401
1731830,707211,77943
600615,1129165,70404
609288,1058601,70763
1246187,926843,79503
1042937,547433,68608
1736006,689033,77076
1452346,477645,72111
1535764,682729,71221
1160002,711298,68707
1646444,977079,69101
1859919,931028,72396
642234,1037384,70812
2496672,134736,94467
1951855,274937,77792
2301182,762109,95354
1824785,700872,72907
2220901,757241,115562
1176731,787898,80669
2254497,69181,61198
2478920,250143,78039
2333256,575764,77670
480105,972678,61510
987010,1005202,71024
1525747,596001,91357
510239,794621,61260
2429249,559147,58861
922976,987414,71354
2097072,779506,95317
2228487,374246,140780
1074892,1012655,70631
1061605,1086562,69818
2354633,149313,78840
2248935,689754,90113
484670,1021216,61638
1919339,660261,73466
448606,1336215,61635
2314816,64629,80054
2390060,681197,76901
1779028,249471,77173
2055877,225233,114143
1053580,1091470,69908
481268,1089394,75208
995085,1165127,78447
2243959,565434,118407
1262141,1030970,69417
1694703,630410,85182
1842870,295916,93894
2359051,574326,77388
2370058,493975,76866
1152028,817736,70987
1636372,922038,69086
2340979,576329,92386
1871011,904349,71938
380786,1310611,61162
462632,1173556,61347
1176368,1026310,138429
746626,1051412,71342
1827619,581685,76244
999860,948566,71162
631230,958576,69911
2154285,292700,142147
2459784,536275,59164
1252429,813979,68383
2137329,729008,105827
2513273,206250,80702
2222964,162275,78752
468989,1267935,61253
2102726,111937,153189
1365627,1115021,67205
1306945,616215,71503
1068862,564201,68890
970518,775969,61032
1014381,1043433,70676
1671837,738267,71656
1162122,914320,71145
2436883,227774,110523
1621672,785459,70605
596412,1364401,61111
2440635,464315,58827
1129005,702004,68506
2375444,14507,120279
2224865,740364,121975
2301336,82216,61705
1694930,307896,74818
2297486,569891,112115
560924,1179710,69978
2108234,204063,97674
853906,885666,70142
1772507,462713,82501
539031,1137589,69841
1833580,796045,71919
2443255,349866,78526
989255,840110,70090
2418148,42294,80449
2516752,580734,100126
343363,1230103,60930
303265,1382036,61558
865459,1168598,69922
1797288,685125,75550
912871,1218936,77655
1733135,695707,78069
1737048,899893,71311
361909,1414280,61443
1055302,1170450,78047
2064617,626378,116502
2368411,485823,76662
900177,1200027,77745
2311057,576771,77881
1103935,1028090,70361
694038,1187055,70342
1016781,1061782,70393
2184157,649291,75730
1661538,966656,73716
717340,1108833,70969
1815718,835732,71716
2382101,94479,121815
360162,983782,61610
2178602,618520,102720
2367041,541392,76456
1155966,808364,67149
1073835,963901,71084
1430256,1020555,69252
701502,735348,61318
283349,1373515,61823
1967619,321421,82642
1734745,668202,72771
1298594,1161646,70606
2493072,600534,60928
1859207,685677,72929
2456066,231816,77099
367608,1417819,61427
1465437,626788,79624
1298039,713546,70689
1615732,1035799,69460
521974,920921,61611
1122664,724473,68179
1196070,992019,185168
824339,1180995,70173
2108912,445051,76857
1992211,303899,76537
2410205,477582,57933
1037700,878009,70597
1010355,607210,67559
2487676,16796,130454
1666657,596705,83314
819294,749042,61995
822696,1067484,71017
1233998,697976,69545
1467744,544833,82862
683221,1177679,70500
1717807,472080,80259
2169591,663306,75747
1965252,802720,72518
2418839,302868,78565
1784737,899649,71277
1566498,860536,75453
1786561,514580,78914
1669065,734569,71699
2226339,308887,139840
1436992,830367,74608
1498112,661745,71164
979321,929489,71045
2087643,264039,87920
1807768,829911,87411
456409,759514,61257
2439441,51401,126574
2013708,723157,74328
1234539,654941,70042
2231374,426940,141492
621826,1405951,61504
2249256,144177,61094
2017926,842489,73807
2267724,492267,76521
869216,1016845,71337
1766286,921504,76224
1954612,293174,76773
748125,932689,70082
559188,1387650,60821
1354204,1072303,67771
1630466,433508,85139
2301924,395987,77145
1938670,621428,73928
2346721,345121,58873
2403403,61537,112124
931763,1076883,70539
843948,762490,61626
1634242,1032914,69389
2256176,216652,78547
1050992,894979,78703
390453,1184813,60881
1141167,1212827,61232
981953,809674,69789
683273,958079,70170
2259133,696518,90229
1774924,484170,81298
232924,1048566,61211
1695065,342819,82394
1085074,1040264,70380
1170135,788063,67491
665810,1186457,70462
1240297,617128,74922
2269289,595767,73419
1312966,435438,71972
2351119,353821,58693
2244718,598027,100295
1452060,619228,80359
1045117,865464,70652
2068361,220259,114511
1139607,725704,68600
656998,1300011,61178
450398,1051776,75111
2285424,790387,120703
1169453,622420,69598
1009965,1068023,70371
503753,1012116,69995
2196308,528096,76441
2025150,517868,85685
2246666,748755,99761
1092299,612349,68713
463877,1106606,61628
964914,1048574,70759
1297390,1131857,70682
946272,924154,73591
2159101,704583,118906
344707,1395269,60913
905935,1038296,74586
2147328,439560,76520
1784420,565858,74208
1226776,555801,75002
270874,1358290,61339
695039,1127654,70892
2060093,853152,73871
1682291,543049,75150
2507327,188717,81541
1117194,888324,72145
2499142,451595,109604
2205215,157333,79200
1433132,765997,73815
1359977,469657,82715
1816580,561992,76700
691513,1008470,80069
2230247,182315,81509
1660807,475533,83241
1387674,644366,72112
1440714,366516,84926
511472,847877,60876
2438419,22843,128215
1741388,682556,75288
1965082,873301,85321
1296096,580568,76268
1742987,845430,74134
528823,1174816,75214
1932423,925845,91469
1992789,855799,72869
1787502,519018,78875
981979,1167598,78395
1313580,581841,71475
1687810,517311,74038
860315,976616,89876
380861,1100885,61146
2371985,279821,59733
1186214,847529,70045
1372604,611159,72116
2173910,810134,75490
918611,954356,70849
1648088,291856,74295
2069327,742575,116967
2243010,356265,140317
801730,1074515,71230
967127,970951,71283
1097461,661774,68213
649917,1413967,61119
1933934,831069,89728
2325702,683047,122056
1836112,468226,83812
2273355,350631,92301
1932201,368154,111914
1813070,246074,76521
1735154,407096,74727
913835,920307,76676
1278872,528562,92096
728310,911314,69806
1668767,740439,71655
1009425,1033501,70786
1896211,580124,77956
2116424,107441,178374
2093245,382021,76803
2521495,76519,115485
2300528,383934,77140
1711942,902186,70811
1209081,952439,70532
2384459,692970,76749
845118,1167444,74431
1856924,490277,83497
1526650,789344,75689
1723192,606081,77191
1018765,631779,78077
803573,875608,69911
1498907,758442,70826
1056328,763242,61641
1441209,608905,70503
2447311,669502,60513
1287767,820204,68913
2253558,444997,142290
2511810,532814,88871
1938370,341441,107704
2475601,149404,120771
1978478,423924,114656
519200,1435027,61524
2231258,685816,119009
1672966,940114,80065
2481696,676413,63000
2352816,716016,87895
2248440,160534,79402
798391,1218454,61138
2049515,826518,73734
2235419,535974,120037
2473580,691639,60754
2268625,51549,61784
1715862,730688,72339
377487,1221707,60970
2244464,620042,94369
1074907,620467,68538
2267744,335941,94370
2204015,178964,78610
513459,1158555,75515
2344388,585486,88997
1078727,979809,70989
1602204,852833,69706
1537744,649265,80514
2419259,391708,78198
1377751,946165,69186
926621,811936,61202
921877,1225679,78178
1387755,822747,80095
1164638,721593,70345
187539,1085420,61031
1591778,920450,70457
2348355,155806,79235
2348143,45818,120681
2271250,569112,112431
943058,938595,77452
1670301,937738,79673
2379007,411206,77545
2010841,435106,107439
2106030,608429,113049
2268422,543221,126499
2222081,196330,79033
1163100,937952,168314
578107,965007,69893
1221586,805396,67905
1845215,554266,74913
1469340,723288,71181
855648,1115200,70538
724558,928410,69988
1630870,971521,68812
1004809,551021,68148
2365435,441324,77134
2082590,668931,105473
911656,947983,77452
2440036,58830,123832
2417547,642781,77119
2352634,214854,82193
2414768,281295,78901
1888971,342262,102752
842196,1312631,61144
1494716,401006,73089
2050431,538698,117395
816465,1063488,71101
2370201,153809,79527
1899756,619164,74550
1253320,655892,70292
1462821,646329,70774
1422057,1026093,69120
1439419,674716,71706
2268216,417091,140216
810521,1092439,70916
721711,932757,69995
2485919,107084,112840
2469582,367824,101166
2444266,278080,102381
2498122,356323,122414
1318659,638335,71423
1102112,750075,67640
519677,1039672,70079
1025271,1195417,78182
960295,944382,71027
1739768,265863,76521
2400274,286032,78545
1625117,893477,74650
2060840,274984,177901
1406555,1002493,69265
2308228,426439,76988
2364026,121191,79836
2513401,411646,117423
1370262,730267,71500
1387439,1089337,78571
982411,1103085,70158
2499754,303347,119985
493726,732410,61424
2464351,78152,78789
1456655,403836,72507
787445,1020587,71143
2026252,319733,75362
1385078,680971,72009
1052235,781010,70011
1294375,1018612,68702
1826252,332477,76298
2317111,531559,148477
2050903,738768,84304
2478339,51479,114768
2347739,768899,122823
1206000,879178,69720
613965,1148025,70582
1699088,984722,69841
2462405,112846,115408
574485,1279050,61544
715909,881239,61336
2488502,280262,82532
2379115,543710,76718
1369612,943052,69214
1433109,1035285,69007
1154221,750812,68003
1940805,416185,117080
1401308,411144,71985
641393,1047229,70817
1308330,822041,69295
2038350,693891,96795
1198058,648963,69836
1584130,418209,74011
2504504,256717,79622
1922219,314252,116842
2248994,157851,79819
1800282,780376,71429
1402743,764096,71426
587001,1234073,70021
1434143,1058658,68818
2140310,316944,76566
2093161,311079,115725
2312336,43598,114127
1131868,802057,81997
977019,1149440,77809
2328044,468378,76283
1192331,985057,185071
1452770,936484,98289
2160307,691737,86414
2202998,291447,140224
1829342,678811,85287
1320789,939869,68514
2071952,636046,116717
2237205,682773,119102
2193788,551818,92203
2436514,85657,80895
1541708,458740,73689
2112150,710633,86032
1602796,855793,69536
2482284,491839,91108
1321630,419438,71955
2422008,285012,103616
2345008,734077,76733
1414155,591788,75619
2196445,523403,102012
1005339,884443,70642
2223297,539157,120263
2324791,151370,61044
701037,1094211,71076
2410321,187723,125603
1079464,1081182,70155
1022694,1144033,78657
2135548,702837,74422
798995,1016753,71176
1323580,1139024,61202
1657310,545609,93131
1233194,721900,69155
918888,1139992,70027
1202857,1048050,69929
1791172,557041,74481
2307965,390279,359900
666704,1213511,70185
1562742,863343,69537
2200084,790880,105619
2264940,500373,76687
1416820,956386,70210
859424,1087385,70731
1445788,769719,77683
2317968,719896,78021
2226568,335883,141137
1157560,787101,75039
2213672,574818,74913
2137099,487237,76562
881954,1084427,70655
1632865,605995,73795
1240125,549219,75747
1230253,905149,69097
904737,1014745,71276
2096737,807354,91628
367096,1242738,61070
333494,1207692,61536
2371339,761027,145346
754924,866154,61504
294137,1223316,61614
2375591,585436,101225
1225766,609944,70198
2008133,619015,74378
1075216,976803,71058
782481,678862,61196
2505466,451468,108791
1037414,577123,68429
414799,1467908,61379
1197177,982682,185106
2118382,267986,102674
544054,933883,61214
1732718,440440,74702
1327475,659786,71491
1272201,953273,69122
786133,1033733,71259
1486570,849440,71753
1153742,1023513,70389
2071948,493307,111527
380578,1102364,61510
1856255,524949,75003
2369167,436906,77126
1771830,906383,73973
857018,898460,70182
1037512,526674,78048
2306151,254237,59626
1971067,816498,72633
1271722,767796,69450
2104546,481965,76196
1440706,907680,89133
1337043,1129001,69335
565969,1272427,61158
1391721,446674,72122
918620,1170743,77987
2322747,741673,105687
1710165,527349,75340
622371,1268586,69750
2340681,372744,58899
1605879,1046314,69538
693575,960825,70164
1654414,1015112,69389
2420466,167443,122894
893751,1117367,70308
2032155,250146,139207
1314893,980934,68240
1991222,700706,73929
378178,1032081,61759
1620230,474794,74210
2233136,281077,78255
909799,1169750,69958
1623317,759901,71008
1010033,1109094,70079
2193580,550749,75179
854726,1106739,70558
1203616,648912,69730
1925115,828934,89729
1945557,419284,116795
2067169,268570,146858
2501753,130152,122060
1850895,841471,71597
1793998,406324,75893
1159310,811762,67211
2245792,433019,141218
2416916,175998,125295
2227573,811343,106608
2272328,723929,76100
513666,1263622,61199
1754984,460540,77996
280478,1210255,61266
1626349,296396,74277
1777982,376239,75783
628096,913127,61410
1174643,877206,71919
1366343,468248,82612
732823,923751,69910
2172993,152917,78585
864565,950833,79414
2314974,752064,93803
1992398,810804,73162
2332487,376367,59333
961510,871568,70249
2360326,331469,58596
2237709,717895,120128
2032191,452299,106595
1808258,916371,83265
1941412,226509,79951
2335230,443889,76446
2166325,685388,75372
1849213,600803,75672
2488462,253231,87783
2266000,408776,140542
267630,1282535,61534
863085,852135,69806
2023042,281880,77345
1065949,554386,68886
2236304,409864,141317
1067373,594873,68676
954430,926836,75519
2006260,256372,77425
566531,983913,70074
1197721,486054,75679
1186231,981319,184988
1477777,754288,71217
1673831,1020381,69535
2218644,269039,87383
443411,1186317,60611
2395351,409298,338539
2428549,595678,59452
1893478,664097,73253
1113548,756147,67554
2378620,706768,102768
2418233,504667,60620
2060526,551316,119037
2171494,176180,78267
1356965,1042815,68170
932459,1163584,70253
1239409,913681,68958
855277,971921,89799
1263623,1028611,74352
1819646,672704,85436
1819520,876048,70999
2475729,469591,83319
1458267,820408,71519
457245,1299324,61595
1458672,903350,70400
1095523,610867,68934
2501462,360562,104568
1460294,413509,72365
1834847,468012,83728
2305013,557934,138542
1482306,1039639,69788
1472047,610359,80557
1150846,812016,71054
2372208,565763,76600
1285794,726781,83419
2147799,705957,75652
1992421,389708,76371
1140518,1103283,61251
1739381,729072,75740
2212102,334664,141463
1957214,410036,115991
1562426,859807,69423
1391877,796723,99366
1154657,473908,71102
2189874,475928,75832
345572,1128324,60665
1039815,1114293,69983
810570,983742,70872
679432,1090997,71298
2136369,528707,75747
2011070,537105,96512
1677587,934034,82325
1051818,537271,78193
361611,1410972,61597
1099471,1196510,61016
1744610,785807,75068
2480079,645585,60016
2183756,599564,84533
1797090,550654,76876
295803,1067826,61233
2220917,709134,125932
2386149,273525,324359
2374805,85081,122154
2175127,232334,150392
2283765,264100,78408
2425615,184278,132050
2234267,238013,83344
2474349,399888,78684
1857086,945562,72493
1070045,912419,71300
1467951,528754,71936
2325568,353130,59208
1738861,997820,72550
1644810,1034051,69454
851453,956932,70722
1288320,900734,86216
2159965,510541,75711
2142071,160306,77918
1104607,683596,78923
1305939,683627,84127
2401691,8484,83708
588669,1120328,70372
867940,1116343,70515
2510308,679213,60989
539798,868440,61843
2035249,331861,75255
772346,1186148,70184
679140,1110065,71102
843044,1164728,69990
2012383,458491,81723
1937368,455576,85548
1173845,789222,80676
1703468,692642,73018
889507,1083756,70612
1341262,584960,72072
1973614,231348,85758
2185837,815861,88551
432111,1135276,61556
2493013,517392,78364
1197339,870897,69948
2230383,485783,76414
2330778,752262,96722
1071515,541387,69108
729705,1111547,70919
774498,939632,70448
1950240,548228,74081
1502650,741236,74396
464169,797664,61256
2242921,399705,154223
2202603,585923,74914
1039823,793384,69823
1851530,247800,76188
815882,1071250,74575
444268,769845,61431
1482510,1003219,83170
960831,1105997,70158
1959549,748552,72423
254238,1099887,61658
2138831,422086,76527
1174643,985414,183079
1747131,711417,72405
2479484,556715,79699
2277152,552030,123502
2430706,543493,58683
2406166,127527,121283
752765,957851,70501
1780999,412133,75268
936476,1070063,70551
687174,1071974,71271
1842062,322243,75762
919198,1219943,78081
315633,1130876,61345
1022813,1156394,78473
2351716,428138,76953
1490310,539111,72387
732617,963626,70274
2025810,362943,83346
2307830,751141,98420
1986125,709590,88975
2119665,472359,82033
717153,1043149,71100
2264559,207708,79077
682685,965307,70213
2291893,503391,77229
1245670,556927,70868
2504831,177631,81626
2444447,268505,110064
1147099,1007309,70517
1262792,529364,71345
1584327,592616,81825
1914735,344101,76630
871283,871567,70005
2254978,372401,82936
1550549,1055040,69366
2286143,583173,69095
2276545,716447,93048
572094,1080857,70360
2515867,441254,76057
873226,788017,61522
2087737,701916,74919
2076325,457956,76490
585528,1249471,70084
2138234,267781,77039
718409,906236,69753
1130871,741006,70261
2310025,282693,59562
1206273,898974,70197
908163,895013,70319
443611,1149889,61567
1083062,1052067,70363
811429,747933,61717
1556969,1016153,69877
1340149,1107764,69256
1553813,451230,73304
1096372,691625,68188
1774311,750582,87551
1056542,569900,68612
488976,1088747,75097
2447355,434137,78303
2097347,183562,76711
1304531,978522,68402
1518517,391617,73518
659554,1262024,70277
1263388,790545,68905
2266987,103240,61079
1613403,1018584,69298
970518,1081754,70414
2456254,20036,129500
856485,1025977,71283
517106,1236655,75249
919392,1050630,70911
1596179,778309,73830
1029965,692960,67179
946773,804836,61553
1503748,841852,70376
2452587,38771,129465
1463862,485345,72183
965325,990753,71381
652521,1265253,70072
1905170,888319,72914
913446,908315,70513
1465415,857227,72586
2435506,578184,59091
1430034,523672,72032
530545,711099,71226
1359615,595572,71887
2493365,305562,115570
1039872,1173876,77969
1623224,581448,83464
1290570,1020399,68827
2212461,365468,141433
2355956,741030,78030
833575,935218,70489
2022226,263946,128418
2479898,589345,59853
743943,1192972,70265
690347,1077512,71350
2237035,734039,121881
1893893,853657,85192
2247349,213467,78471
1936403,500745,74625
1970674,166250,124294
1159446,743737,68059
2006212,618514,74326
2496351,12708,131018
2247578,615941,91384
1535508,549674,83699
1541206,622981,78787
1137011,1078406,69870
2481457,351483,113531
2440495,117463,139079
2414821,264562,89539
1615821,894638,69140
2514228,215781,86652
1981953,887157,73726
503190,1124250,75122
2267084,272798,83429
2088425,733308,105285
1765541,668021,76495
2375839,429842,77381
2404784,510520,85579
645206,840495,61229
2317756,733035,75886
1801141,577106,74398
1407747,447725,71866
2430966,665020,77440
1510289,1033557,69890
1083095,1243513,61044
1780289,986979,70932
1241523,798324,68096
2216218,262523,92866
1941777,403387,116560
678236,1013872,70596
692927,883234,61339
2034061,406361,74967
1014303,593316,67807
1708634,692568,76271
784373,1052275,71292
1521472,958894,70638
2178822,634827,74116
1489479,767517,74258
2128179,632239,76423
856586,784822,61393
2293761,218094,67913
1048414,741788,65720
2372988,136517,122925
1781385,942191,83017
324252,978944,61628
1135463,755832,71088
2415422,596931,59710
1721096,776159,70833
1100295,1051794,70346
2301688,424021,107044
2183735,261834,141206
2405143,253549,78866
2225956,336983,141753
2271223,75498,61351
2177045,344952,142307
1452490,634812,71047
1015800,845658,70345
2070006,137389,77192
280222,1310238,61869
1395857,876778,78525
2076390,451937,76494
1638942,747752,71271
287347,854165,61532
1038720,631478,78490
1048731,1196584,78241
1873571,673177,75237
2448536,284882,95978
944001,746509,61616
1220036,1059501,281707
735368,1020398,71005
2103868,376683,76876
1362293,632910,71869
1331434,920392,68846
2331458,735831,95433
1344647,1129200,69666
1024236,898184,79245
1115622,1174014,61071
2358666,365266,58473
511343,1003449,70050
1565444,450584,84773
1156152,740752,74550
1727138,743819,79080
2240076,247219,79077
2517753,384601,79626
2294050,771897,85221
2337828,60443,80370
690003,1186535,70247
2442797,684222,78822
948107,1111963,70233
1596653,581973,84109
1624254,868237,73548
774416,1221779,61290
2501640,621854,68042
1905285,362493,89265
1829133,839564,71584
2422373,62775,121967
1296093,1082025,61943
489846,1064461,61794
1746430,349287,81800
1669737,369760,78758
547486,991060,70027
1086411,1103653,70051
1839486,712458,77860
2101910,798532,105946
1304246,846594,69007
2520924,499062,138285
1654410,1007154,69529
304549,1344784,61680
426069,1268416,61111
1963567,174442,125536
2454026,129178,136292
1046887,636732,78716
2252260,642460,91402
1249159,626639,70383
1103636,811299,81037
1904274,889171,72853
2005341,305268,77469
2166077,251902,142071
2298737,153750,60545
2442450,142138,140572
1372242,978586,68858
885989,961743,79358
858539,853158,69827
1582559,1058434,69279
651591,1169979,78348
2114420,542938,111249
437527,1385776,61324
1722164,360263,74725
2516464,480154,119795
765449,1315397,61290
1102226,621178,68733
2040695,414603,102614
652721,1274338,61277
1471119,455192,72321
1178429,635442,69919
1074601,1039434,70477
1837881,561799,75203
1304878,906563,68431
1385050,828323,70503
300399,937958,61406
2486827,13157,130362
2377364,437595,81268
2412868,423385,81453
543304,1294370,61659
2230518,750876,110716
496964,1073432,61711
1437840,795459,73164
1827487,411640,76601
2233640,507825,92841
2038321,147378,125501
2217557,597936,96717
845819,1029526,71370
1560868,547113,73411
1895235,191963,115858
1456935,534610,71828
2296654,620608,74179
594684,1051646,70634
2263877,732982,75834
2211476,186591,80465
1002078,990255,71097
2187268,578852,74654
1714185,928878,73588
642820,1103995,71011
1691550,409850,73877
960711,747102,61059
1026428,803619,69919
2248851,117712,61373
1389429,694290,71906
1555375,848092,69840
1076622,603156,68408
1073815,860806,70188
2302532,498413,77025
2202997,131856,79571
1184627,816344,67041
267645,884021,61376
2234759,394159,165331
282164,1179696,60866
791951,1002865,75137
917161,1018433,71156
1713935,290305,84800
1623685,671325,72567
1785403,482181,77505
647570,1127970,70886
834419,1088438,70666
966026,547003,67373
2003041,751007,73711
2315546,418378,76396
2239041,794785,98545
2133919,227401,95265
1803393,700485,74521
1061532,687035,78564
1692300,981747,69706
2440877,335394,115244
1184341,795342,67015
111463,930512,61969
1707639,556400,77331
1782862,867406,70929
1481580,1081176,69104
1482792,421903,73155
1280567,630946,71005
702287,949250,70125
2288912,713840,76075
2243108,323485,77550
1030318,1106439,70017
2091445,627031,74670
2163906,171252,78300
2080119,715402,75000
1884141,304675,88556
1644362,409862,82837
1747258,733380,86847
1379246,1093436,83721
2497060,556667,108551
2327685,692243,122768
1667252,919159,72685
2273628,184667,60632
318165,784046,60988
996601,1091117,70264
1079340,577423,68844
1937663,876841,85194
1203272,975807,184793
1651851,790139,70696
1583728,820877,75890
2103907,662765,85964
1107899,830404,70565
1208953,900991,70146
1404456,594296,77271
650032,1001497,70459
395477,1008265,61308
1007696,739176,61736
2408621,536485,58796
1643978,541029,83594
2277161,645666,89548
1102782,975855,70898
2288045,463262,76568
2115529,241606,76616
1131130,566753,69855
1297237,951663,68315
2183997,616052,85234
1682563,887267,70223
1303439,829244,69218
2331424,82640,84336
2444799,590142,59181
1987551,180190,104625
2008483,876676,73676
2462112,207620,80866
750689,1283471,61299
1517683,1064164,69660
1823268,776966,71734
1419889,793701,71393
2464977,473208,78573
669239,1163169,162714
679263,976015,70386
1000345,962964,71318
1498906,729674,74582
2415016,29607,124104
2153497,639609,88293
1473151,1009740,81243
234583,935246,61556
343670,1091168,60915
391576,1151802,61064
1333761,665765,71698
1774523,830358,70875
882482,842065,70115
1404144,699290,76902
1568891,873269,69407
1075950,677297,78634
2034469,508377,76200
1176856,855604,70690
1854090,946954,72699
2191652,566138,80082
690481,1048676,71137
1117331,504105,70134
2071780,489675,76904
2334075,513615,128388
1512486,417875,73188
1559250,959072,84136
1428985,974104,69666
648002,874880,61013
1678278,903034,69948
2033424,818439,73226
231981,1185413,61201
1111347,1027215,70396
1735674,725248,76042
2503249,428406,112783
2457540,593807,71455
1185192,720202,68590
2387841,245356,78613
1945591,329170,107564
2369400,58672,122080
2076830,428498,76628
267743,1123168,61300
1096734,892960,71002
863903,1086225,70711
2366475,293141,59411
2471727,200598,127798
497944,870227,61013
2146104,398613,76645
1277111,585805,71092
2346080,435976,76745
2321351,29606,116795
871599,989030,71173
1403351,833339,80094
639376,1320715,61000
1092513,490534,69847
155057,1019932,61178
1698365,363097,82215
1596806,454422,85078
1781597,639693,79263
2310589,382635,76902
2362102,597623,120247
2473094,3229,126595
1176325,1050831,69905
2424056,141375,121045
1874280,451149,75315
2186395,682050,75777
1209529,907983,70312
1032200,933557,71210
1837827,323661,91013
2374052,407812,79715
1075081,839489,70441
2216758,573839,95911
2283996,439238,97616
1158628,738343,68080
1376636,838985,70140
1943907,468328,75009
1532268,850881,70030
1657372,297963,78287
1882688,429093,101239
888250,1076293,70743
2327978,780143,151735
873669,967954,70926
1348451,688801,71662
762216,1078060,71038
1338975,815803,69770
1761601,752520,87923
2025325,715865,74291
2485808,699470,60492
1636091,363844,81170
1077321,1048001,70436
2400529,279102,78351
365962,1209534,61471
1031404,658108,78143
2326811,543766,151885
2374988,474309,58614
1181800,598203,70071
1324719,446209,90789
1379607,1040385,68630
1782983,647108,72917
2497607,1086,131160
1402094,1064501,73244
1227390,664536,69842
686182,877755,61302
1337658,796730,82823
1599975,314279,74192
622419,1040348,70663
1359106,551504,81698
1828410,634607,75792
1739879,904049,74928
1497578,1061687,69601
1221362,900003,69542
2291973,328083,94888
1335583,1100413,69395
1948216,353831,107759
2200214,709248,119926
1007310,578226,67688
2102603,457283,76638
2479152,563520,59818
2088131,204497,76134
1170578,1144794,61219
1109226,691664,68248
2232618,229343,78582
2393517,685474,80446
1317346,1074741,68889
1634738,413258,92977
1785736,436268,75207
235288,1083049,61614
1375720,644500,72074
738693,937076,70188
945466,801291,61284
1311243,760950,70258
1075647,1099679,69981
1829104,269821,79712
2386091,334175,59117
2290384,771234,84138
846696,1042033,71121
2469714,473897,78482
2480484,194148,117013
2449878,379449,78158
972839,1072923,70483
695845,819881,61952
2245693,766810,78995
1426223,930264,98330
122011,944991,61152
1782254,622490,352561
2325511,465873,76098
918849,886638,70372
1152820,730262,68315
1285596,980280,68917
1029794,1175279,77991
1212445,980881,189937
2371599,422500,77339
1497503,427608,73277
2113123,153791,83020
1605013,454307,85335
1091700,663327,68152
1403359,432659,72372
2253368,716883,120465
2272511,63115,61522
1160627,715874,68506
671398,1237081,173539
1765278,245392,90693
2068975,770306,107541
1570222,930517,76021
738211,919677,69997
1969469,791174,72095
1399412,867779,70210
1417598,721864,71958
2177165,179753,78366
442984,903506,61535
1383278,1129184,68466
611844,1316510,61213
307859,1397475,61510
1726200,906563,74745
972877,918204,75273
1681398,1009244,69483
1647677,329305,74960
1024979,1208465,78155
1011486,1100664,69844
2233510,150566,79382
1650768,1023559,69620
2236321,272648,78169
1919823,282924,123163
295159,809683,61039
1845446,600870,75746
328967,903942,61096
2072676,378929,76829
241239,1074733,61263
2249113,186754,79079
816971,1302951,61251
1483255,788856,70952
914575,1139179,69848
1816321,257970,76253
1747467,962786,84112
1372752,391755,71937
2490049,635083,70298
317124,1053277,61314
1614669,652003,81585
1594863,682827,75442
1220288,1043802,81950
545536,1153997,69884
1894045,584509,76890
1647115,973149,68968
760591,1131277,70551
718680,949931,70152
376409,1099383,60669
2152691,574130,118262
779877,921508,70113
1646060,382846,81372
1504652,863859,70331
2290103,111629,61030
1679146,456735,73845
1233828,574511,76966
2320471,379646,77047
1228268,1049601,69870
501857,1213619,75343
1239843,526981,71047
623356,709801,61550
2294665,436745,76969
1523843,512896,73110
2306435,135339,60974
1829249,615574,76211
1162346,1066848,69791
2216098,450264,142437
1197225,957959,70499
2022556,788936,73378
2067464,850085,73890
1187398,620864,69757
1814707,569725,76502
943644,895181,70579
954109,546108,62650
1063252,936971,71309
2157531,301731,94503
2281401,621763,74003
325457,975977,61529
835872,1124428,70497
314005,903340,61425
2377576,445025,77550
2046642,737870,84461
1265523,709550,76402
1924569,404633,92479
1945851,247240,77162
288235,824275,61391
2296565,202496,60123
2421831,427657,89957
945169,764435,61656
927213,1203108,77977
292585,1012277,61299
1054133,991036,70964
1133604,916858,71399
2330859,671203,121509
1231772,919410,76890
1150906,1083447,70311
1642296,510583,85091
1975649,858799,85205
2217982,787342,106208
1805739,789925,71682
823615,1144444,70343
2054105,810186,73787
1571873,910201,69304
1032299,966769,71115
1475338,468996,72509
689714,1166000,70491
781440,929099,70217
1059959,1101323,69936
912102,1033466,74752
2440361,391743,78231
498876,1056649,69798
1955593,556019,74146
945539,765325,61068
814856,1026236,71246
924860,857824,69939
2168736,655957,75902
922376,909227,74442
1216042,843422,68377
632515,1072212,70973
2165954,772249,92122
231083,1086138,61414
425118,1241633,61437
535375,1264429,75548
2376447,685053,76823
2110156,217373,101735
1901630,345121,97106
2343609,279901,59263
1643852,659870,72953
1229898,501298,71048
1071059,1013968,70762
2217437,517148,76298
1293273,898293,86307
905898,1168186,69859
2284059,461854,76507
2237629,321683,88289
240808,928315,61216
1505982,835863,70298
1204670,466054,76503
2328770,310589,64551
86450,940543,61147
2480754,70271,115163
2284502,632083,73932
1336209,481098,71920
2143757,597767,119756
1389493,709862,71818
2476482,189593,86441
1172178,945686,70853
2420830,59795,113619
183429,924568,61098
1138485,570585,69874
2057563,616824,117461
2037143,840777,73140
2420139,100864,120365
1517701,980244,70398
1875026,421852,75364
1262885,451953,97160
1498205,763264,76646
594912,1125190,70372
1131076,757658,72789
371157,1216596,61199
2213351,71492,80273
1002193,581618,67480
2158403,672540,75281
2502289,351200,116774
1885154,521460,74968
1263435,689977,70044
2065289,361476,76845
2002776,330404,82940
2106392,840720,98365
1177625,953112,70741
1159132,695551,68816
2098151,518595,124007
873876,1130393,70304
2470632,316882,115520
1203179,601720,70059
942576,780574,61686
1375234,867578,69917
2247841,369458,139994
2027840,718241,97119
849909,1169211,70030
2017456,400238,75255
2442496,385170,78201
1444643,766914,71896
2398613,17783,77426
1300814,939117,68347
2320248,583255,81496
683219,795105,61177
2338339,233321,59940
964802,1206293,78358
504549,1147347,75185
1993565,807435,73226
2352096,494827,76247
1209726,492436,71057
1037777,1103261,69977
2477307,247036,78033
1570399,736796,73586
668302,832879,61355
652027,1188432,70365
1172427,767110,67864
2159944,381140,96207
2121551,328817,76716
802819,975108,70833
1584996,1060319,69370
2217759,513135,89591
2214572,310752,140620
2374836,135729,122771
955143,1174077,77854
1177029,855684,70676
1343612,1110245,69274
732239,947894,70178
1049008,1167139,78501
1334750,964237,69047
2414450,362608,87729
1286287,1034511,69511
2510670,680209,60899
2058078,623857,125536
1641290,458572,74072
653314,1103165,71099
725023,930978,70014
1155644,965359,78814
1805822,769977,71612
563432,1297491,60992
2068466,715609,75304
2370817,470744,58632
1293260,1163189,72574
2433822,36033,116729
951783,1110237,70268
2506091,118717,119437
714706,999553,70740
1766130,591226,73678
1485655,349506,73201
1837912,371362,75905
1025570,1121942,69872
1405609,926059,79212
1562593,933734,76076
1250464,1077261,70488
1707749,582024,80818
1835572,714499,73058
2183555,605741,89554
62596,924295,61568
2242722,777645,98128
1823331,623100,74130
1475191,781320,76048
1314226,1096613,67319
1051595,1122261,68197
927815,952245,80500
546529,1263192,75634
2235590,767525,104973
1829369,571281,76497
2149945,516250,75732
1040714,637018,78559
2407690,662673,86788
2152623,421256,76685
1437721,1003384,74827
1664896,669566,77378
917955,955901,70947
2400444,59746,120799
402221,1413698,61497
2206523,463176,76612
2097056,628826,75592
1564934,694485,71486
847552,1180895,69917
2198713,347704,141989
1081231,1034189,70542
2140099,694527,75966
983789,1128580,69965
2092549,508700,116717
402758,1307699,61684
1898170,816513,90033
2232719,516170,122586
2507339,475377,121256
1087241,997437,70795
2157822,698715,119455
1985409,406500,80594
1740337,488059,87497
2501705,83398,115795
427398,903425,60894
1178536,771970,71370
1906046,413647,75454
994917,949178,71071
1794624,905983,71625
1149208,749607,67905
400674,1221764,60911
2191695,200291,84439
981752,1002876,71125
2499394,636908,60488
1359336,493148,76362
2415878,222221,124211
851682,1164573,70089
2269240,381074,140499
1707388,816019,70977
1637518,289587,75137
1031979,641110,78240
2305682,392305,76788
2244163,708755,119933
1060596,687546,78428
2064024,466124,76374
2388036,538141,78584
2052709,264443,181985
2474204,307747,114211
2427032,484375,58513
578765,1104140,70432
1081656,589995,68775
2385554,597359,80035
2337579,349985,58933
927099,820547,61433
2355563,482433,81383
2435352,346054,78206
1913764,504216,78464
1599122,441901,85037
387356,978232,61579
2491187,346757,127039
2416979,685664,77289
1552649,627692,72368
1897601,757914,89664
1185772,802126,66832
2376747,290252,59726
858195,1330049,61272
331006,1230488,60853
1977333,788173,72273
1427914,1079211,68320
848604,766400,60870
1142890,634821,69256
1553411,422417,84618
863887,1122168,70400
1719681,865630,74759
1441577,802593,73113
988028,1277174,61125
1319401,1028691,69655
806727,1039956,71341
1195372,825477,67152
2492808,590007,79340
2520448,598404,107175
2043020,307070,148353
1908045,591345,75176
889515,886223,70118
1484195,584803,82571
1116872,843956,70557
2067506,833838,73774
1075158,544484,69205
1038137,838702,70271
1074054,1143275,78095
2470853,130232,126842
2275170,129967,60699
2210124,165275,79131
1680473,444268,81892
914231,1193283,77729
1503388,1082335,69689
1051862,855990,75690
1087966,597119,68840
1975614,455592,75661
634769,1175523,184072
397916,969143,61059
2304245,152906,60564
558047,1127672,70127
1880254,416991,99908
1772206,438182,76824
1396987,663218,82027
1921004,785924,83446
1488765,1081967,69317
2445248,243256,110449
303110,1287485,60586
1903509,484482,74580
1268105,598447,71306
1832992,631382,73675
687521,959908,70214
1290635,842376,68720
965028,1097136,70334
1370365,503121,72477
2301758,599110,77975
2101361,294925,119289
1805285,805843,71702
1984567,157214,123545
1008760,793767,68275
670501,810717,61135
2088645,724402,107917
739610,959772,70396
2498096,347990,110382
2244310,345851,69882
847153,1116440,73051
2008063,679500,73972
709339,852297,61778
2412927,613368,77082
1459393,416345,72275
657253,1028392,70697
2494223,700802,60628
1000815,1069060,70398
1795770,563013,74443
2344940,621400,74527
1328953,453601,81199
1067850,618055,68565
1829228,874887,70687
778133,880984,70914
2211765,482572,76130
2006483,853547,73330
2192466,530231,102890
2255061,267050,78240
1938315,500214,74426
2482254,53828,112941
2346925,463112,76375
652769,1057408,70956
1189203,1058561,97084
1533514,773988,74604
1325132,509129,90376
2177577,679051,75196
998236,582410,67472
872658,1017238,71353
2274135,796172,145349
366927,1090363,61114
1581836,671919,72146
1904164,265432,115502
383471,1314907,61265
2097986,202836,76750
929175,874644,70188
1671330,514529,83307
1992236,423006,83353
283215,1032060,61388
533065,994478,69979
1218861,665221,69740
2366354,211967,79198
2000655,468463,107045
1879332,434320,91646
2245355,479518,76633
2408480,62158,107838
664829,1000832,70565
2418010,681819,77197
1157784,1066389,69872
1870410,500244,75350
111700,927311,61949
1330216,1137620,68935
1245189,727217,69253
1933479,750575,83404
2212044,472661,76259
2183352,608576,92889
2239452,590851,73465
1589390,756817,70759
1168705,917785,150079
1629197,308106,74234
1656252,1027208,69619
1694154,834698,80156
1177230,632200,69835
692302,1095803,71130
1812886,943221,71370
2101722,555574,116261
1175651,767948,67857
1790896,960034,76283
1284498,761273,69679
2144113,713936,102978
2385412,645380,77545
2485776,538668,105739
1672217,463686,75065
163989,1012727,61525
1076361,643843,79070
1145422,527335,70328
2054253,396979,76663
2182544,361513,142478
1557653,785936,75892
819528,1095259,70781
2026653,631864,122045
1906138,507271,83351
429742,1082028,75178
1255640,923900,79032
910935,1173346,77729
2336105,675011,121769
113514,871749,61397
312715,1039350,61602
2111744,670652,89092
1925941,684571,72673
403622,1290852,60964
1682227,482646,73804
670528,936504,69881
